           5.00           5.00           5.00           5.00           5.00           5.00           5.06           5.21           8.37          13.31          18.01          21.63          22.73          23.32          24.06          28.95          32.96          35.80          37.42          39.32          43.07          46.49          49.31          50.46          51.04          50.67          51.60          54.06          57.24          61.16          66.74          71.03          78.65          91.73         111.91         145.22         236.28         512.19         828.86        1166.33        1555.84        1833.46        2044.02        2183.14        2309.72        2411.87        2479.11        2544.65        2608.86        2664.24        2697.31        2719.61        2745.47        2771.72        2778.76        2768.74        2759.49        2757.96        2767.56        2778.84        2789.70        2791.56        2787.60        2784.53        2794.32        2819.00        2876.55        2965.42        3064.80        3082.53        3087.46        3137.55        3108.81        3037.78        3019.03        3012.64        2984.89        2973.69        2967.80        2989.43        3011.42        3050.09        3087.43        3123.94        3168.05        3204.78        3229.34        3248.56        3269.59        3296.09        3319.43        3340.12        3350.21        3358.10        3358.40        3360.50        3364.40        3358.42
           5.00           5.00           5.00           5.00           5.00           5.00           5.11           6.46           9.92          14.16          17.27          18.84          19.56          21.04          23.59          27.16          30.10          32.34          34.59          37.54          40.84          43.90          46.28          47.62          47.87          47.72          48.16          50.22          53.08          56.83          61.26          65.43          70.44          76.71          90.10         115.72         167.00         269.51         467.55         736.33        1092.69        1417.94        1705.28        1917.97        2085.27        2212.07        2327.06        2430.43        2513.85        2573.99        2618.64        2651.87        2679.19        2700.98        2712.86        2714.04        2714.22        2716.42        2725.15        2733.29        2736.34        2739.31        2745.46        2759.22        2783.64        2823.03        2894.47        2978.39        3034.79        3040.54        3021.56        3012.95        2998.28        2987.48        2989.83        2989.07        2971.20        2953.18        2934.82        2935.34        2948.22        2976.52        3008.98        3043.87        3079.63        3112.64        3143.41        3173.14        3202.03        3229.32        3252.44        3273.62        3286.76        3292.58        3298.81        3310.72        3327.47        3348.22
           5.00           5.00           5.00           5.00           5.00           5.07           5.87           8.69          11.83          14.34          15.64          15.76          16.62          18.51          21.19          24.02          26.32          28.69          31.55          35.02          38.72          41.58          43.68          45.05          45.40          44.90          45.42          46.78          49.48          52.85          56.32          60.32          64.72          69.02          74.31          86.08         105.55         161.62         258.42         455.71         709.72        1013.18        1300.67        1564.71        1777.38        1962.36        2131.26        2282.24        2388.07        2463.72        2521.62        2568.18        2602.75        2630.06        2643.55        2651.53        2654.30        2659.62        2667.45        2673.71        2676.40        2684.18        2702.39        2728.26        2765.63        2819.57        2894.77        2968.95        3007.07        2989.69        2959.64        2933.82        2922.99        2929.06        2944.78        2950.38        2945.99        2929.25        2911.47        2897.02        2899.58        2914.18        2937.23        2962.90        2990.26        3020.86        3053.83        3087.65        3120.62        3151.18        3179.75        3205.97        3222.23        3232.96        3247.17        3268.34        3292.73        3329.30
           5.00           5.00           5.00           5.00           5.16           5.86           7.95          10.89          12.85          12.84          12.05          12.06          13.43          15.73          18.00          19.88          22.21          25.08          28.62          32.64          36.35          38.97          40.67          41.64          42.17          42.61          42.87          44.34          46.71          49.46          52.46          56.04          60.14          64.44          68.94          75.13          82.08          99.52         151.53         233.69         389.70         614.24         876.97        1155.78        1404.74        1640.42        1857.66        2039.38        2179.82        2279.63        2362.24        2435.51        2485.92        2523.43        2549.69        2566.11        2574.42        2581.34        2589.16        2595.24        2603.40        2619.70        2647.94        2687.05        2732.40        2796.41        2872.68        2932.65        2949.05        2938.03        2902.99        2876.70        2872.31        2882.73        2897.05        2907.73        2908.21        2899.35        2883.03        2868.49        2863.72        2866.64        2876.07        2887.87        2903.25        2927.55        2958.52        2991.50        3027.40        3064.10        3098.91        3127.59        3144.02        3161.49        3186.53        3210.80        3232.50        3251.16
           5.00           5.00           5.00           5.09           5.60           6.77           9.01          11.01          10.86           9.33           8.29           8.28          10.11          12.38          14.41          16.46          18.90          22.29          26.12          30.20          33.62          36.06          37.31          38.37          39.55          40.35          41.13          42.60          44.86          47.44          50.15          53.45          57.27          61.09          65.45          70.09          75.36          81.58         100.82         127.99         199.44         332.66         538.63         773.35        1044.16        1288.68        1521.82        1714.74        1860.16        1978.13        2094.63        2196.59        2287.91        2360.83        2419.37        2448.65        2469.66        2481.91        2489.93        2496.19        2519.53        2555.30        2594.08        2646.58        2710.17        2778.82        2843.17        2885.72        2901.95        2891.44        2860.89        2839.43        2833.82        2845.02        2857.01        2866.89        2869.79        2866.19        2854.66        2842.60        2831.11        2826.63        2824.54        2821.73        2826.70        2840.87        2865.97        2896.21        2934.33        2974.96        3012.68        3033.19        3047.79        3066.17        3096.00        3129.28        3151.95        3171.11
           5.00           5.00           5.00           5.18           5.77           7.27           8.79           9.21           8.00           6.85           6.15           6.46           7.78          10.01          12.34          14.75          17.79          20.86          24.24          27.46          30.42          32.48          34.09          35.49          36.89          38.28          39.43          40.89          43.08          45.51          48.17          51.39          54.77          58.45          62.44          66.57          70.43          74.53          80.41          93.10         119.90         194.15         307.61         499.85         721.94         952.63        1155.81        1326.19        1458.52        1581.98        1699.75        1844.28        1984.68        2118.00        2220.51        2297.47        2336.82        2360.36        2376.60        2404.47        2449.14        2510.11        2576.10        2644.33        2712.16        2772.43        2817.04        2838.19        2849.55        2847.51        2834.90        2808.70        2806.23        2813.53        2822.35        2828.39        2832.78        2830.79        2823.83        2809.80        2799.17        2790.83        2782.24        2774.36        2766.92        2772.49        2788.88        2816.11        2851.70        2891.04        2921.10        2942.86        2954.00        2975.07        3010.11        3043.17        3074.56        3097.78
           5.00           5.00           5.03           5.18           5.83           6.95           7.75           7.32           6.19           5.58           5.33           5.44           6.29           7.94          10.35          13.60          16.83          19.78          22.21          24.58          26.72          28.71          30.68          32.21          34.10          35.99          37.42          39.19          41.25          43.45          45.94          48.92          52.04          55.27          58.90          62.64          66.35          70.06          74.45          80.42          90.97         115.11         178.83         286.30         438.23         601.10         757.23         903.89        1038.55        1149.26        1276.38        1432.35        1607.99        1782.20        1948.40        2077.08        2175.74        2245.25        2293.32        2353.61        2430.02        2509.54        2581.49        2649.96        2706.28        2746.28        2771.93        2785.18        2796.90        2807.35        2796.17        2780.48        2774.35        2778.87        2785.38        2790.69        2794.04        2795.47        2788.19        2775.95        2764.96        2756.44        2749.27        2737.03        2725.53        2721.28        2728.72        2747.78        2771.78        2796.53        2823.11        2845.11        2864.03        2890.69        2926.22        2968.23        2997.45        3019.35
           5.00           5.00           5.05           5.23           5.58           6.14           6.37           5.83           5.32           5.14           5.08           5.09           5.40           6.33           8.44          11.29          14.58          17.01          19.12          21.04          23.07          25.39          27.43          29.36          31.28          33.36          35.71          37.68          39.78          42.11          44.42          46.84          49.18          51.78          55.11          59.01          63.25          67.06          70.86          75.08          80.58          94.86         120.66         166.83         241.62         319.71         410.33         516.26         623.85         732.18         855.47        1014.96        1202.26        1417.79        1654.34        1856.65        2004.82        2111.08        2209.59        2307.80        2401.97        2487.23        2557.75        2612.09        2654.27        2684.71        2704.51        2716.04        2724.80        2730.54        2722.80        2712.05        2717.80        2731.59        2741.63        2747.21        2752.14        2753.05        2747.55        2737.75        2727.95        2720.84        2712.55        2700.61        2687.19        2676.86        2676.83        2681.91        2693.95        2705.69        2720.11        2734.21        2750.94        2786.75        2834.96        2881.44        2910.49        2929.50
           5.00           5.02           5.15           5.33           5.47           5.56           5.45           5.20           5.08           5.03           5.02           5.03           5.09           5.71           6.81           8.87          11.07          13.18          15.04          17.08          19.73          22.57          25.39          27.48          29.42          31.97          34.19          36.33          38.36          40.33          42.81          45.24          47.20          49.21          52.02          56.40          60.63          64.58          67.84          71.13          74.82          81.36          95.33         117.00         146.08         180.29         218.56         272.05         335.73         410.84         517.06         671.07         872.92        1138.30        1407.91        1614.47        1779.83        1924.86        2060.57        2200.71        2321.82        2408.39        2475.68        2530.16        2573.97        2607.03        2625.67        2636.85        2642.81        2641.53        2632.52        2632.52        2650.17        2673.05        2684.93        2691.98        2695.72        2698.31        2693.05        2685.87        2679.90        2676.42        2670.28        2659.65        2646.13        2635.48        2628.66        2628.34        2629.10        2629.69        2628.06        2623.21        2637.84        2677.16        2734.46        2779.76        2803.72        2816.13
           5.00           5.09           5.24           5.34           5.31           5.24           5.10           5.05           5.02           5.01           5.00           5.01           5.03           5.12           5.60           6.31           7.54           8.98          10.58          13.08          16.21          19.70          22.92          25.32          27.53          29.74          32.29          34.39          35.83          38.13          40.88          43.43          45.21          46.45          49.07          52.79          57.23          60.77          64.02          67.09          70.41          74.15          82.33          92.89         107.70         127.75         147.99         169.38         195.72         242.05         330.41         493.92         714.04         965.53        1176.95        1335.21        1498.61        1683.09        1869.45        2045.28        2182.19        2281.48        2358.67        2428.44        2482.43        2521.42        2546.35        2559.48        2567.17        2565.80        2560.68        2563.66        2583.37        2600.70        2615.95        2627.38        2637.05        2634.15        2626.96        2618.22        2615.22        2615.59        2613.40        2606.23        2594.67        2585.30        2578.90        2575.83        2571.65        2561.06        2544.36        2531.78        2539.59        2579.57        2627.56        2661.16        2679.16        2692.16
           5.03           5.15           5.24           5.24           5.13           5.05           5.02           5.01           5.00           5.00           5.00           5.00           5.01           5.04           5.11           5.20           5.57           6.09           7.17           9.28          12.36          16.24          19.72          22.77          25.08          27.61          30.20          32.15          33.83          35.69          38.30          41.00          42.00          42.72          44.17          47.75          51.73          56.02          60.09          63.94          66.95          69.83          73.85          81.28          92.02         104.28         116.46         129.97         150.70         191.75         295.60         447.33         623.01         790.00         921.42        1040.78        1216.68        1431.20        1638.62        1836.85        1998.77        2125.10        2227.84        2313.89        2378.94        2426.96        2463.09        2486.84        2500.72        2503.95        2501.12        2502.12        2507.40        2523.59        2544.14        2558.87        2566.63        2563.80        2548.44        2536.93        2533.87        2536.65        2539.30        2533.27        2524.61        2518.81        2517.66        2516.18        2505.45        2488.30        2469.61        2457.62        2465.44        2487.35        2512.48        2535.96        2550.39        2571.27
           5.11           5.16           5.18           5.11           5.03           5.01           5.00           5.00           5.00           5.00           5.00           5.00           5.00           5.01           5.02           5.05           5.12           5.22           5.67           6.91           9.57          12.71          16.85          20.30          23.28          25.82          28.18          29.70          30.86          32.69          35.55          37.80          38.77          38.61          39.39          41.94          45.83          50.39          56.21          61.62          64.10          65.85          68.08          72.90          80.25          90.09         101.66         117.21         156.89         220.52         287.57         380.18         459.57         536.66         623.32         755.63         952.56        1165.27        1383.49        1590.24        1778.26        1931.61        2072.96        2172.54        2247.33        2307.26        2358.98        2397.48        2418.23        2427.80        2431.94        2436.33        2443.05        2457.96        2467.19        2466.93        2463.81        2452.18        2439.49        2432.50        2432.80        2438.38        2439.99        2437.70        2435.01        2436.05        2439.75        2435.81        2423.32        2400.25        2383.25        2388.37        2394.45        2391.84        2397.77        2405.30        2420.60        2434.75
           5.14           5.12           5.09           5.04           5.01           5.00           5.00           5.00           5.00           5.00           5.00           5.00           5.00           5.00           5.00           5.01           5.02           5.06           5.16           5.96           7.29          10.27          14.00          18.33          21.92          24.78          26.62          27.49          28.68          30.83          33.83          36.44          37.38          37.11          37.43          39.15          41.69          45.68          52.01          57.62          61.69          63.58          66.38          69.60          74.59          81.10          90.96         116.68         156.67         190.42         222.42         244.68         266.72         311.76         399.31         528.65         720.22         917.34        1113.33        1315.90        1505.03        1691.08        1844.05        1962.27        2049.12        2128.33        2196.96        2244.85        2274.79        2297.26        2318.12        2339.20        2354.51        2364.92        2360.52        2343.18        2327.23        2315.22        2306.04        2308.57        2316.19        2323.08        2327.42        2327.50        2331.93        2336.39        2334.36        2336.58        2323.88        2316.34        2314.61        2313.12        2322.66        2312.47        2291.10        2289.44        2313.47        2374.95
           5.04           5.05           5.03           5.01           5.00           5.00           5.00           5.00           5.00           5.00           5.00           5.00           5.00           5.00           5.00           5.00           5.00           5.01           5.05           5.20           6.07           7.81          11.19          15.52          19.97          23.51          25.27          26.17          27.24          29.92          33.07          35.69          36.60          36.74          37.71          39.44          41.39          44.73          49.90          56.96          61.44          64.96          67.53          70.01          72.29          76.38          84.23         100.07         129.10         146.25         141.52         145.59         162.63         199.42         258.07         368.96         512.17         676.34         836.15        1017.66        1204.03        1386.49        1541.68        1657.32        1759.11        1848.78        1927.35        1995.14        2048.44        2098.66        2132.85        2159.29        2187.44        2194.80        2191.63        2162.91        2139.50        2143.67        2143.64        2140.98        2163.16        2179.19        2196.64        2194.69        2180.52        2181.32        2176.34        2188.57        2197.85        2197.17        2191.85        2194.90        2198.63        2187.53        2181.14        2182.81        2204.20        2263.33
           5.01           5.01           5.00           5.00           5.00           5.00           5.00           5.00           5.00           5.00           5.00           5.00           5.00           5.00           5.00           5.00           5.00           5.00           5.01           5.07           5.45           6.52           9.02          13.00          18.21          22.11          24.61          25.48          27.10          29.47          32.59          35.01          36.13          36.98          38.56          40.66          42.76          45.92          51.85          58.56          63.92          67.17          68.26          68.45          68.57          70.50          76.07          85.72          98.44         105.77         108.34         114.74         124.17         140.69         177.75         236.85         338.70         443.66         577.37         738.41         898.70        1040.44        1166.31        1271.17        1375.86        1465.15        1547.78        1623.38        1700.17        1766.73        1812.66        1840.78        1858.22        1878.32        1869.86        1843.50        1829.55        1828.41        1836.85        1852.30        1878.55        1916.85        1935.10        1922.13        1895.95        1864.48        1874.62        1892.14        1908.00        1909.58        1898.87        1909.64        1940.13        1983.03        2004.98        2017.47        2031.63        2078.30
           5.00           5.00           5.00           5.00           5.00           5.00           5.00           5.00           5.00           5.00           5.00           5.00           5.00           5.00           5.00           5.00           5.00           5.00           5.00           5.02           5.09           5.66           7.19          11.36          16.37          21.28          24.10          26.16          27.94          30.32          32.77          34.86          36.72          38.32          40.99          43.83          46.62          50.27          56.09          61.74          65.01          65.33          64.61          63.26          62.60          63.96          68.21          74.24          81.97          86.83          92.51          97.45         103.89         113.30         134.32         165.70         213.83         283.83         383.84         499.71         601.47         690.47         778.75         870.08         956.68        1036.35        1104.05        1170.73        1235.46        1297.16        1329.98        1350.61        1362.70        1365.53        1353.87        1329.15        1321.66        1341.21        1364.42        1384.30        1432.59        1475.35        1486.60        1457.75        1410.11        1392.93        1391.92        1420.91        1428.53        1433.53        1446.40        1479.42        1547.32        1613.47        1671.01        1696.67        1701.36        1728.67
           5.00           5.00           5.00           5.00           5.00           5.00           5.00           5.00           5.00           5.00           5.00           5.00           5.00           5.00           5.00           5.00           5.00           5.00           5.00           5.00           5.06           5.25           6.86          10.23          15.69          20.51          23.84          26.43          28.82          30.93          32.91          35.30          38.31          42.02          46.04          49.42          52.68          55.75          58.42          60.52          60.50          59.73          58.66          58.32          58.65          60.47          63.94          68.77          73.73          78.76          83.20          87.40          91.39          97.61         106.93         124.27         148.97         185.89         238.10         299.13         347.39         401.97         457.94         520.01         587.02         650.50         711.23         757.74         796.34         829.49         848.75         857.78         857.45         841.50         821.26         808.46         817.48         849.11         874.66         905.75         953.61         988.54         982.98         953.16         926.53         911.85         917.05         925.08         937.33         956.53         980.15        1020.49        1073.33        1137.31        1192.84        1223.44        1257.33        1292.61
           5.00           5.00           5.00           5.00           5.00           5.00           5.00           5.00           5.00           5.00           5.00           5.00           5.00           5.00           5.00           5.00           5.00           5.00           5.00           5.00           5.01           5.23           6.24           9.51          14.81          19.72          23.69          26.67          29.43          31.92          34.72          38.42          42.74          46.89          50.40          52.98          54.49          54.79          54.99          54.67          54.16          54.32          55.17          56.17          57.51          59.49          62.43          66.11          70.10          74.06          78.22          81.69          84.02          86.95          91.94          99.47         109.77         124.99         145.07         164.67         188.50         211.91         244.01         282.82         326.75         376.60         420.31         456.82         484.61         500.85         503.88         502.36         495.52         483.78         463.93         448.84         474.07         512.62         538.50         557.41         588.87         612.21         601.76         571.88         558.24         558.53         566.54         571.72         578.91         600.07         628.17         660.25         692.64         729.49         769.06         806.65         845.74         885.37
           5.00           5.00           5.00           5.00           5.00           5.00           5.00           5.00           5.00           5.00           5.00           5.00           5.00           5.00           5.00           5.00           5.00           5.00           5.00           5.00           5.00           5.14           5.85           8.76          13.17          18.84          23.04          26.80          30.75          34.92          38.52          42.43          45.88          48.17          49.05          48.94          49.06          48.98          48.90          49.33          50.38          51.79          53.40          55.26          57.04          58.84          61.14          63.80          67.07          70.56          74.09          76.86          78.43          79.32          81.68          85.05          90.30          96.41         102.58         106.57         115.06         125.36         136.85         156.35         182.75         214.63         248.90         271.57         291.27         302.04         298.77         293.02         283.05         272.84         259.80         257.23         278.93         306.46         323.38         333.19         352.56         363.09         348.23         331.47         328.30         331.80         337.77         345.65         355.66         373.32         390.68         412.24         437.48         462.01         488.25         513.32         548.25         570.76
           5.00           5.00           5.00           5.00           5.00           5.00           5.00           5.00           5.00           5.00           5.00           5.00           5.00           5.00           5.00           5.00           5.00           5.00           5.00           5.00           5.01           5.04           5.67           7.40          11.83          16.87          22.11          27.61          33.80          38.18          40.42          42.37          43.47          43.86          43.88          43.56          43.84          44.50          45.70          47.03          48.59          50.28          52.19          54.16          56.15          57.92          59.35          61.70          64.36          67.35          70.05          71.94          72.44          72.95          74.31          76.95          80.31          83.52          86.81          90.08          92.29          94.95          97.48         106.93         119.67         135.65         155.37         173.94         186.21         193.97         189.80         185.22         180.46         170.75         166.68         166.24         178.27         194.86         192.74         199.99         209.81         209.46         202.25         192.85         191.52         196.10         199.18         206.63         214.93         225.94         240.10         254.60         272.45         288.03         306.54         326.73         351.86         373.89
           5.00           5.00           5.00           5.00           5.00           5.00           5.00           5.00           5.00           5.00           5.00           5.00           5.00           5.00           5.00           5.00           5.00           5.00           5.00           5.00           5.00           5.02           5.23           6.68          10.20          15.40          21.70          29.13          36.08          38.03          37.61          37.23          37.88          38.56          39.12          39.97          41.06          42.34          43.80          45.37          47.11          48.97          50.90          52.99          55.05          56.63          57.97          59.32          61.38          63.52          65.20          66.36          67.08          67.63          68.87          71.34          74.38          77.65          80.60          83.23          85.16          87.24          89.04          91.84          96.36         104.57         116.16         127.04         133.82         138.48         141.00         139.46         137.38         132.74         130.31         129.40         133.38         133.70         130.90         134.31         134.94         129.26         126.18         123.38         123.22         123.36         123.29         127.11         133.02         138.52         146.77         154.97         166.29         178.28         189.27         204.17         220.95         237.93
           5.00           5.00           5.00           5.00           5.00           5.00           5.00           5.00           5.00           5.00           5.00           5.00           5.00           5.00           5.00           5.00           5.00           5.00           5.00           5.00           5.00           5.02           5.07           6.09           8.82          14.44          21.43          29.51          34.11          33.99          31.45          31.35          32.68          34.14          35.52          36.76          38.26          39.74          41.35          43.09          44.91          46.90          48.99          51.06          52.95          54.19          54.85          55.78          57.25          58.90          60.71          62.30          63.66          64.56          65.90          68.06          70.97          74.01          77.12          80.03          82.57          84.07          85.20          85.85          88.05          91.89          97.44         102.82         108.34         112.67         115.32         116.00         116.31         115.53         114.11         112.44         109.76         107.96         106.37         104.64         101.40          97.96          98.00          97.23          95.76          93.72          92.79          92.90          93.42          94.46          96.88         101.20         104.90         110.07         116.75         126.56         139.14         139.61
           5.00           5.00           5.00           5.00           5.00           5.00           5.00           5.00           5.00           5.00           5.00           5.00           5.00           5.00           5.00           5.00           5.00           5.00           5.00           5.00           5.00           5.00           5.06           5.50           8.37          13.23          20.37          27.25          30.07          28.43          26.89          27.54          28.82          30.48          31.96          33.64          35.03          36.55          38.30          40.19          42.22          44.28          46.38          48.41          49.88          50.71          51.03          51.86          53.40          55.61          57.79          60.00          61.63          62.91          64.23          66.35          69.12          71.97          74.80          77.72          79.98          81.42          81.54          81.44          81.96          83.79          86.76          90.18          93.21          96.25          98.34          99.61          99.94          99.82          98.99          97.43          95.46          93.03          90.70          88.50          86.94          85.73          84.97          84.37          83.88          83.37          82.41          80.96          79.01          78.30          77.86          77.15          77.47          78.96          82.19          88.07          95.41         101.73
           5.00           5.00           5.00           5.00           5.00           5.00           5.00           5.00           5.00           5.00           5.00           5.00           5.00           5.00           5.00           5.00           5.00           5.00           5.00           5.00           5.00           5.00           5.29           6.15           8.48          13.20          18.51          23.15          25.34          23.98          23.40          23.62          24.85          26.31          28.17          29.88          31.33          32.89          34.82          36.75          38.83          41.00          43.23          45.16          46.47          47.12          47.71          48.68          50.55          53.08          55.62          57.99          59.72          61.07          62.68          64.89          67.41          69.93          72.46          75.03          77.29          78.24          77.61          76.77          76.41          77.67          79.65          81.89          83.66          85.28          86.44          86.82          87.04          86.60          85.82          84.68          82.93          81.15          79.25          77.54          76.27          75.44          74.91          74.79          74.92          75.32          75.37          75.06          74.12          72.66          71.01          69.67          68.98          69.40          70.37          72.68          77.15          78.67
           5.00           5.00           5.00           5.00           5.00           5.00           5.00           5.00           5.00           5.00           5.00           5.00           5.00           5.00           5.00           5.00           5.00           5.00           5.00           5.00           5.00           5.13           5.45           6.57           8.85          11.42          14.31          17.24          18.30          18.55          17.69          17.78          18.65          20.35          22.42          24.32          25.84          27.52          29.56          31.45          33.83          36.46          39.13          41.27          42.70          43.70          44.45          45.47          47.37          49.77          52.66          54.93          56.64          58.09          59.82          61.90          64.34          66.72          69.29          71.99          74.42          74.92          73.99          72.08          71.42          71.77          73.23          74.83          76.38          77.40          78.00          77.95          77.72          77.18          76.13          75.10          73.67          72.03          70.37          68.83          67.59          66.60          66.06          65.92          66.42          67.26          68.34          68.75          68.72          68.03          66.95          65.49          64.21          63.20          63.81          65.58          68.31          71.25
           5.00           5.00           5.00           5.00           5.00           5.00           5.00           5.00           5.00           5.00           5.00           5.00           5.00           5.00           5.00           5.00           5.00           5.00           5.00           5.00           5.00           5.03           5.35           6.03           7.00           8.07           8.56           9.56          10.72          10.91          10.79          10.82          11.61          13.03          14.88          16.73          18.14          19.92          21.36          23.28          26.15          29.95          33.37          36.28          38.15          39.48          40.58          41.70          43.39          45.95          48.71          51.08          52.71          54.09          55.56          57.21          59.48          62.11          65.18          68.57          71.26          71.86          70.27          68.34          67.00          66.82          67.56          68.80          70.00          70.99          71.53          71.62          71.04          70.26          69.32          68.23          67.01          65.43          63.76          62.00          60.46          59.17          58.08          57.63          57.82          58.86          59.99          61.21          61.75          61.55          60.84          59.74          58.19          57.03          56.67          58.36          61.23          65.06
           5.00           5.00           5.00           5.00           5.00           5.00           5.00           5.00           5.00           5.00           5.00           5.00           5.00           5.00           5.00           5.00           5.00           5.00           5.00           5.00           5.00           5.02           5.12           5.34           5.69           5.73           5.90           6.05           6.37           6.58           6.58           6.73           6.98           7.64           8.58           9.55          10.78          11.67          12.81          14.10          17.00          20.52          24.60          28.23          31.06          33.21          34.81          36.25          38.29          41.28          44.32          46.88          48.47          49.83          50.81          52.02          53.82          56.90          60.70          65.17          68.15          68.78          67.22          65.31          63.85          63.27          63.41          63.99          64.76          65.51          66.23          66.47          66.20          65.56          64.60          63.48          62.06          60.33          58.44          56.59          54.53          52.65          50.99          49.76          49.08          49.65          50.75          52.13          52.82          53.06          52.66          52.19          51.76          50.83          51.00          52.14          56.05          61.31
           5.00           5.00           5.00           5.00           5.00           5.00           5.00           5.00           5.00           5.00           5.00           5.00           5.00           5.00           5.00           5.00           5.00           5.00           5.00           5.00           5.00           5.01           5.02           5.09           5.12           5.11           5.19           5.43           5.42           5.54           5.46           5.34           5.48           5.60           5.75           6.06           6.40           7.01           7.40           8.22           9.48          11.55          14.10          17.33          20.35          23.33          25.94          28.12          30.87          34.15          37.97          40.87          43.24          44.86          45.78          46.42          48.29          51.47          56.42          61.24          64.52          65.04          64.31          62.86          61.89          61.27          60.98          60.90          60.81          60.95          61.46          61.88          62.00          61.75          61.03          59.75          58.23          56.43          54.60          52.56          50.44          47.83          45.22          42.24          40.11          39.05          40.27          41.77          43.24          43.99          44.40          45.08          45.72          46.15          46.08          47.65          53.11          60.94
           5.00           5.00           5.00           5.00           5.00           5.00           5.00           5.00           5.00           5.00           5.00           5.00           5.00           5.00           5.00           5.00           5.00           5.00           5.00           5.00           5.00           5.00           5.01           5.01           5.02           5.03           5.27           5.56           6.35           6.85           6.48           5.94           5.74           5.52           5.47           5.93           5.86           5.94           5.55           5.82           6.57           7.06           8.07           9.05          10.73          13.14          15.51          17.64          20.66          24.29          27.92          31.55          34.80          37.43          39.16          40.49          42.50          46.16          51.34          56.30          59.52          60.67          60.69          60.35          59.84          59.48          59.06          58.60          58.16          57.96          57.88          57.84          57.73          57.64          57.23          56.44          55.23          53.72          52.06          50.06          47.39          44.29          40.06          35.38          31.14          29.42          29.78          32.38          35.11          37.11          38.80          40.48          41.63          41.93          42.02          44.71          50.66          59.38
           5.00           5.00           5.00           5.00           5.00           5.00           5.00           5.00           5.00           5.00           5.00           5.00           5.00           5.00           5.00           5.00           5.00           5.00           5.00           5.00           5.00           5.00           5.00           5.00           5.00           5.10           5.30           6.15           7.50           8.67           8.91           9.10           8.86           8.01           8.19           8.34           9.73           9.22           8.72           7.82           7.50           8.76           8.65           8.31           8.12           8.40           8.96           9.93          11.81          14.25          17.03          20.40          23.60          26.80          29.14          31.71          34.67          39.41          44.94          50.21          53.19          55.09          55.84          56.07          56.07          55.88          55.57          55.25          55.01          54.70          54.58          54.27          54.14          53.93          53.70          53.19          52.45          51.16          49.31          46.96          44.05          40.26          35.22          30.25          26.27          24.52          25.42          27.81          30.80          33.73          35.92          37.18          37.72          37.46          37.76          41.90          50.05          58.30
           5.00           5.00           5.00           5.00           5.00           5.00           5.00           5.00           5.00           5.00           5.00           5.00           5.00           5.00           5.00           5.00           5.00           5.00           5.00           5.00           5.00           5.00           5.00           5.00           5.00           5.01           5.13           5.51           6.61           7.97           9.39          11.16          12.39          12.53          12.23          13.95          15.32          18.11          17.60          16.68          16.05          15.64          16.45          15.39          13.57          11.75           9.81           8.85           8.68           8.96           9.93          11.58          13.87          16.37          19.33          21.19          25.00          29.49          36.33          42.20          45.97          47.79          48.22          48.89          49.81          50.04          49.95          49.72          49.37          49.31          49.03          49.23          49.54          49.74          49.83          49.71          48.90          47.61          45.72          43.28          40.39          36.25          31.40          27.00          24.74          24.20          24.98          26.43          28.58          30.82          32.99          34.30          34.02          32.84          35.23          42.08          50.67          59.89
           5.00           5.00           5.00           5.00           5.00           5.00           5.00           5.00           5.00           5.00           5.00           5.00           5.00           5.00           5.00           5.00           5.00           5.00           5.00           5.00           5.00           5.00           5.00           5.00           5.00           5.00           5.04           5.09           5.40           5.88           6.88           8.87          10.65          11.47          12.83          13.97          17.28          19.71          22.54          22.82          22.12          23.04          23.30          22.81          20.98          18.16          16.18          13.91          12.06          10.23           9.05           9.62          11.06          13.23          15.12          17.31          18.99          23.14          28.34          33.21          36.61          37.56          38.07          39.50          41.93          43.96          43.74          43.35          42.76          42.17          42.22          42.38          43.04          43.70          44.48          44.82          44.49          43.43          41.88          39.75          36.85          32.92          28.61          25.25          23.63          23.11          23.20          23.48          24.30          26.52          28.84          29.86          29.42          29.68          34.45          43.16          52.15          60.55
           5.00           5.00           5.00           5.00           5.00           5.00           5.00           5.00           5.00           5.00           5.00           5.00           5.00           5.00           5.00           5.00           5.00           5.00           5.00           5.00           5.00           5.00           5.00           5.00           5.00           5.00           5.01           5.03           5.07           5.15           5.35           5.96           6.73           7.73           8.88          10.13          11.17          13.42          15.04          17.10          18.66          20.28          21.87          22.25          21.27          20.45          20.09          19.61          18.10          16.29          14.80          14.84          16.52          19.33          20.40          21.01          23.24          25.25          27.85          29.11          29.07          28.84          30.02          33.80          37.93          40.25          41.06          39.85          38.51          37.79          37.09          36.71          36.24          36.39          37.47          38.41          38.80          38.37          37.33          35.67          32.85          29.05          25.43          22.78          20.64          19.70          19.05          18.91          20.10          22.00          24.19          25.18          25.29          28.51          36.22          46.21          56.10          66.23
           5.00           5.00           5.00           5.00           5.00           5.00           5.00           5.00           5.00           5.00           5.00           5.00           5.00           5.00           5.00           5.00           5.00           5.00           5.00           5.00           5.00           5.00           5.00           5.00           5.00           5.00           5.00           5.01           5.01           5.03           5.08           5.16           5.26           5.50           5.95           6.58           7.06           7.36           8.24           9.39          11.00          12.93          14.52          14.98          14.87          14.89          16.20          17.57          19.21          19.99          19.49          20.06          22.02          23.03          23.47          23.34          24.63          27.07          28.71          28.93          27.89          27.51          28.58          32.17          36.34          38.92          39.16          38.35          37.16          35.99          34.74          32.46          29.69          28.60          29.00          30.59          31.31          31.17          30.23          28.41          25.82          22.37          19.27          16.74          15.35          14.63          15.16          16.46          17.37          19.35          21.51          22.72          24.91          30.47          40.51          51.92          64.94          80.31
           5.00           5.00           5.00           5.00           5.00           5.00           5.00           5.00           5.00           5.00           5.00           5.00           5.00           5.00           5.00           5.00           5.00           5.00           5.00           5.00           5.00           5.00           5.00           5.00           5.00           5.00           5.00           5.00           5.00           5.01           5.01           5.03           5.06           5.10           5.15           5.22           5.40           5.55           5.78           6.13           6.68           7.45           8.06           8.53           8.53           8.55           9.16          10.49          12.43          14.45          15.39          15.71          16.49          17.23          16.52          16.67          17.51          19.18          21.48          23.31          25.21          24.84          26.02          29.06          31.96          34.40          35.04          34.57          33.84          33.34          31.81          28.20          24.26          21.23          21.09          21.84          21.72          20.86          20.10          18.59          16.79          14.57          12.65          11.31          10.78          11.53          13.70          15.43          16.73          18.21          20.41          22.96          26.34          32.79          44.09          58.22          76.66          96.14
           5.00           5.00           5.00           5.00           5.00           5.00           5.00           5.00           5.00           5.00           5.00           5.00           5.00           5.00           5.00           5.00           5.00           5.00           5.00           5.00           5.00           5.00           5.00           5.00           5.00           5.00           5.00           5.00           5.00           5.00           5.00           5.01           5.01           5.01           5.03           5.05           5.07           5.09           5.11           5.27           5.39           5.56           5.58           5.66           5.78           5.87           6.08           6.17           6.90           7.78           8.38           9.12           9.16           9.01           8.97           9.20           9.67          10.09          11.26          13.05          14.73          16.15          17.61          21.02          25.23          27.73          27.94          27.01          26.31          25.80          24.57          22.11          18.40          16.37          15.00          14.19          13.09          11.89          11.26          11.38          11.20          10.90          10.62          10.21          10.11          11.12          12.73          14.88          16.25          18.10          21.28          24.95          28.88          36.34          47.78          67.04          90.81         117.41
           5.00           5.00           5.00           5.00           5.00           5.00           5.00           5.00           5.00           5.00           5.00           5.00           5.00           5.00           5.00           5.00           5.00           5.00           5.00           5.00           5.00           5.00           5.00           5.00           5.00           5.00           5.00           5.00           5.00           5.00           5.00           5.00           5.00           5.00           5.01           5.01           5.01           5.02           5.03           5.04           5.06           5.09           5.14           5.11           5.13           5.13           5.20           5.29           5.32           5.40           5.60           5.79           6.06           5.81           5.74           5.96           5.96           6.33           6.51           6.94           7.70           8.20          10.00          13.53          17.14          19.06          19.03          17.55          16.59          16.11          15.95          15.12          14.32          13.18          12.15          10.90           9.08           8.27           8.80           9.24          10.27          10.84          11.09          11.06          10.96          11.03          12.55          14.54          16.83          20.06          24.05          29.13          35.09          43.13          57.95          79.02         105.67         133.06
           5.00           5.00           5.00           5.00           5.00           5.00           5.00           5.00           5.00           5.00           5.00           5.00           5.00           5.00           5.00           5.00           5.00           5.00           5.00           5.00           5.00           5.00           5.00           5.00           5.00           5.00           5.00           5.00           5.00           5.00           5.00           5.00           5.00           5.00           5.00           5.00           5.00           5.00           5.00           5.01           5.01           5.02           5.02           5.02           5.02           5.03           5.03           5.04           5.05           5.09           5.13           5.12           5.14           5.16           5.14           5.16           5.16           5.19           5.36           5.39           5.50           5.62           6.54           8.47          10.36          11.48          10.78           9.82           9.03           8.99           9.58          10.40          11.24          12.05          11.37           9.72           8.37           7.75           8.15           8.98           9.63          10.13          10.38          10.39          10.26          10.67          12.78          15.88          19.99          25.23          31.62          39.77          48.69          59.18          76.61         100.32         124.84         149.09
           5.00           5.00           5.00           5.00           5.00           5.00           5.00           5.00           5.00           5.00           5.00           5.00           5.00           5.00           5.00           5.00           5.00           5.00           5.00           5.00           5.00           5.00           5.00           5.00           5.00           5.00           5.00           5.00           5.00           5.00           5.00           5.00           5.00           5.00           5.00           5.00           5.00           5.00           5.00           5.00           5.00           5.00           5.00           5.00           5.00           5.00           5.01           5.01           5.01           5.01           5.02           5.02           5.03           5.03           5.02           5.02           5.04           5.04           5.05           5.06           5.08           5.14           5.49           6.12           6.88           7.01           6.69           6.10           5.95           6.01           6.34           7.00           8.03           8.94           8.81           7.73           6.68           6.56           6.93           7.43           7.73           8.33           8.44           8.36           8.73          10.76          14.23          21.06          28.83          38.57          49.88          62.79          74.50          89.96         109.44         131.37         149.93         162.07
           5.00           5.00           5.00           5.00           5.00           5.00           5.00           5.00           5.00           5.00           5.00           5.00           5.00           5.00           5.00           5.00           5.00           5.00           5.00           5.00           5.00           5.00           5.00           5.00           5.00           5.00           5.00           5.00           5.00           5.00           5.00           5.00           5.00           5.00           5.00           5.00           5.00           5.00           5.00           5.00           5.00           5.00           5.00           5.00           5.00           5.00           5.00           5.00           5.00           5.00           5.00           5.00           5.00           5.00           5.00           5.01           5.01           5.01           5.01           5.01           5.02           5.06           5.13           5.38           5.53           5.47           5.35           5.19           5.20           5.24           5.33           5.52           5.93           6.37           6.31           5.84           5.58           5.72           6.33           7.49           8.42           8.77           8.34           7.64           7.66           9.72          17.29          29.53          44.94          62.61          81.22          97.73         112.39         126.51         143.43         159.50         170.06         176.86
           5.00           5.00           5.00           5.00           5.00           5.00           5.00           5.00           5.00           5.00           5.00           5.00           5.00           5.00           5.00           5.00           5.00           5.00           5.00           5.00           5.00           5.00           5.00           5.00           5.00           5.00           5.00           5.00           5.00           5.00           5.00           5.00           5.00           5.00           5.00           5.00           5.00           5.00           5.00           5.00           5.00           5.00           5.00           5.00           5.00           5.00           5.00           5.00           5.00           5.00           5.00           5.00           5.00           5.00           5.00           5.00           5.00           5.00           5.00           5.00           5.00           5.01           5.05           5.09           5.10           5.09           5.06           5.04           5.03           5.04           5.07           5.13           5.21           5.32           5.30           5.27           5.64           6.58           9.63          12.61          14.19          14.08          12.37           9.36           7.42           9.22          20.97          40.37          65.22          91.04         114.75         133.30         147.42         158.17         167.35         174.58         181.90         186.04
           5.00           5.00           5.00           5.00           5.00           5.00           5.00           5.00           5.00           5.00           5.00           5.00           5.00           5.00           5.00           5.00           5.00           5.00           5.00           5.00           5.00           5.00           5.00           5.00           5.00           5.00           5.00           5.00           5.00           5.00           5.00           5.00           5.00           5.00           5.00           5.00           5.00           5.00           5.00           5.00           5.00           5.00           5.00           5.00           5.00           5.00           5.00           5.00           5.00           5.00           5.00           5.00           5.00           5.00           5.00           5.00           5.00           5.00           5.00           5.00           5.00           5.00           5.01           5.01           5.02           5.01           5.01           5.01           5.01           5.01           5.01           5.02           5.03           5.05           5.08           5.30           6.44          10.46          16.23          21.20          23.15          21.83          17.78          12.97           8.60          12.47          27.99          54.29          83.23         113.40         139.88         161.00         172.62         180.98         184.59         187.65         190.80         194.26
           5.00           5.00           5.00           5.00           5.00           5.00           5.00           5.00           5.00           5.00           5.00           5.00           5.00           5.00           5.00           5.00           5.00           5.00           5.00           5.00           5.00           5.00           5.00           5.00           5.00           5.00           5.00           5.00           5.00           5.00           5.00           5.00           5.00           5.00           5.00           5.00           5.00           5.00           5.00           5.00           5.00           5.00           5.00           5.00           5.00           5.00           5.00           5.00           5.00           5.00           5.00           5.00           5.00           5.00           5.00           5.00           5.00           5.00           5.00           5.00           5.00           5.00           5.00           5.00           5.00           5.00           5.00           5.00           5.00           5.00           5.00           5.00           5.01           5.01           5.08           6.56          10.31          17.07          24.97          31.34          32.68          30.33          22.94          15.44          11.70          19.67          39.73          66.71          98.09         129.93         159.55         180.80         192.67         195.86         196.46         196.79         198.25         198.78
           5.00           5.00           5.00           5.00           5.00           5.00           5.00           5.00           5.00           5.00           5.00           5.00           5.00           5.00           5.00           5.00           5.00           5.00           5.00           5.00           5.00           5.00           5.00           5.00           5.00           5.00           5.00           5.00           5.00           5.00           5.00           5.00           5.00           5.00           5.00           5.00           5.00           5.00           5.00           5.00           5.00           5.00           5.00           5.00           5.00           5.00           5.00           5.00           5.00           5.00           5.00           5.00           5.00           5.00           5.00           5.00           5.00           5.00           5.00           5.00           5.00           5.00           5.00           5.00           5.00           5.00           5.00           5.00           5.00           5.00           5.00           5.00           5.00           5.00           5.00           9.53          16.07          26.02          34.33          42.25          43.80          41.57          24.92          13.64           9.64          30.29          55.35          83.95         115.86         149.77         179.58         201.50         205.75         205.24         202.92         202.43         202.56         202.12
