           5.01           5.03           5.08           6.06           7.71          10.84          13.75          16.47          17.79          18.99          20.68          22.18          23.67          25.50          27.41          30.23          32.41          34.15          36.38          38.61          40.95          43.42          46.12          51.54          58.83          74.00         114.98         157.84         211.75         261.97         321.85         375.63         428.33         467.60         499.34         501.06         500.78         500.73         501.32         502.56         504.15         515.69         531.56         559.13         578.04         594.24         597.43         600.05         603.33         610.84         618.33         633.89         655.21         684.95         713.48         744.44         774.41         810.44         848.92         895.66         944.47        1019.77        1163.94        1316.14        1568.88        1815.95        2065.02        2233.93        2404.61        2482.89        2550.31        2601.16        2641.19        2675.39        2696.04        2712.97        2727.27        2740.68        2754.36        2779.42        2819.59        2856.27        2896.90        2936.31        2970.19        2999.30        3027.79        3046.81        3053.30        3048.56        3045.45        3040.25        3033.11        3036.83        3072.08        3171.56        3298.87        3473.04        3651.07        3833.47        3966.51        4095.95        4224.31        4361.18        4501.08        4650.15        4791.32        4907.58        4981.66        5033.91
           5.00           5.04           5.16           5.76           7.05           9.39          11.97          14.37          16.13          17.47          18.84          20.16          21.58          23.41          25.57          27.78          29.78          31.81          34.21          36.74          39.36          41.92          44.10          48.31          55.09          67.66          89.72         119.53         159.91         205.19         254.57         302.09         348.40         393.46         436.95         469.42         488.10         492.67         494.09         495.03         499.97         512.78         531.71         555.66         575.51         587.74         593.49         596.92         599.64         603.13         608.64         621.50         640.87         668.60         698.65         730.59         762.33         794.99         826.20         864.66         912.25         985.82        1093.97        1240.92        1443.99        1679.19        1928.31        2146.00        2321.07        2437.14        2515.96        2570.28        2610.31        2637.53        2658.02        2677.09        2693.83        2708.81        2721.06        2734.42        2750.50        2770.52        2796.83        2828.63        2860.49        2894.11        2925.05        2947.96        2961.86        2970.51        2977.49        2986.40        3012.09        3060.56        3146.07        3271.95        3428.25        3602.37        3774.58        3927.32        4059.70        4187.24        4314.42        4445.82        4580.94        4710.40        4825.63        4910.68        4967.79        5005.47
           5.00           5.01           5.05           5.33           6.20           7.87          10.05          12.41          14.23          15.78          16.97          18.17          19.56          21.25          23.22          25.30          27.17          29.28          31.87          34.58          37.39          39.84          42.17          44.58          49.76          58.33          72.25          91.95         120.04         156.85         198.05         240.48         285.56         335.88         392.06         447.75         476.11         486.95         484.30         484.82         488.30         501.72         522.07         544.78         563.25         576.09         584.41         590.16         594.58         597.97         602.41         611.10         628.85         651.85         682.15         714.46         748.40         779.24         808.39         838.02         881.51         944.04        1040.06        1164.39        1336.71        1556.54        1799.65        2032.47        2236.84        2376.15        2469.28        2530.84        2569.38        2596.33        2619.49        2641.79        2661.85        2676.42        2687.51        2695.73        2703.63        2711.79        2724.56        2740.80        2762.06        2789.36        2819.98        2847.74        2870.23        2892.41        2919.74        2958.06        3023.70        3119.32        3243.52        3394.36        3563.02        3738.03        3894.19        4031.15        4152.10        4273.06        4397.78        4524.28        4648.59        4758.04        4845.75        4909.20        4952.58        4986.35
           5.00           5.00           5.03           5.08           5.48           6.42           8.15          10.01          12.11          13.82          15.37          16.64          18.01          19.55          21.52          23.58          25.47          27.49          29.75          32.28          34.69          37.11          39.00          41.30          45.26          51.38          59.81          71.80          89.78         115.84         147.98         186.52         230.93         282.95         353.61         416.38         458.64         467.79         468.19         463.01         465.84         477.35         496.82         518.14         536.51         551.43         565.16         576.74         585.61         592.06         596.71         604.66         617.44         637.08         663.03         696.34         730.85         764.04         792.03         818.82         857.15         911.23         988.81        1096.34        1236.99        1431.31        1655.20        1907.21        2122.42        2299.58        2405.50        2475.82        2517.70        2549.19        2579.35        2605.78        2626.71        2641.75        2652.63        2661.24        2668.05        2672.70        2677.31        2683.65        2693.76        2713.99        2739.40        2770.78        2806.18        2851.03        2908.20        2985.69        3089.26        3220.51        3369.70        3530.20        3697.86        3855.48        4000.30        4121.00        4229.25        4345.41        4467.13        4585.76        4693.48        4781.59        4844.17        4890.75        4932.40        4972.25
           5.00           5.00           5.00           5.03           5.14           5.72           6.60           8.15           9.93          12.15          14.05          15.72          17.19          18.83          20.79          22.71          24.45          25.96          27.70          29.55          31.71          33.89          35.79          38.12          41.33          46.13          52.27          59.81          70.98          87.38         111.72         143.16         184.50         240.06         305.67         376.79         418.03         433.71         435.36         432.73         433.64         445.48         464.88         481.43         496.20         514.24         533.06         552.72         568.06         579.68         587.74         595.48         605.73         619.62         641.00         672.89         709.92         746.51         776.04         805.25         834.70         882.03         947.62        1033.79        1150.26        1302.92        1515.76        1744.79        1990.45        2181.31        2319.86        2399.91        2459.28        2499.72        2535.40        2564.01        2583.89        2599.32        2612.10        2623.97        2633.88        2639.53        2642.08        2646.53        2656.35        2674.00        2704.87        2749.31        2806.36        2879.66        2972.45        3075.21        3201.35        3342.71        3500.10        3662.98        3812.14        3955.60        4085.79        4194.83        4299.30        4411.65        4524.33        4625.92        4714.17        4778.45        4824.84        4866.19        4907.10        4945.78
           5.00           5.00           5.00           5.01           5.03           5.15           5.61           6.35           7.98          10.12          12.32          14.36          16.50          18.41          20.27          21.87          23.04          24.12          25.28          26.69          28.54          30.49          32.37          34.45          37.68          41.53          45.97          51.24          58.24          70.10          86.08         111.03         144.20         188.70         247.96         308.62         354.18         382.01         394.21         403.08         409.47         421.83         434.08         441.81         449.38         461.95         488.98         515.64         538.16         555.10         567.64         578.22         589.56         600.74         619.27         646.59         684.38         721.08         757.19         784.71         815.37         852.32         906.48         974.51        1059.73        1189.28        1364.00        1590.22        1825.62        2043.14        2201.10        2313.45        2390.38        2444.84        2484.33        2514.16        2535.24        2551.10        2566.24        2581.37        2593.37        2600.99        2607.44        2616.29        2633.59        2668.49        2717.78        2788.24        2875.01        2976.51        3091.44        3210.93        3331.35        3471.01        3626.41        3772.62        3910.08        4033.05        4148.79        4254.19        4360.08        4472.87        4573.03        4651.12        4715.33        4762.04        4799.10        4836.31        4876.02        4904.71
           5.00           5.00           5.00           5.00           5.01           5.05           5.15           5.55           6.51           7.97           9.62          11.71          14.04          16.60          18.51          19.83          20.79          21.71          22.69          23.97          25.56          27.27          28.85          30.90          33.76          36.88          40.15          43.90          48.53          55.57          66.58          82.18         107.77         140.58         187.33         239.18         290.05         324.09         354.36         374.55         389.82         401.94         408.36         406.25         402.70         415.54         440.45         472.64         499.42         519.69         536.17         550.46         562.02         574.24         589.70         616.59         649.68         691.53         729.32         763.08         792.35         824.25         865.33         918.93         984.04        1083.08        1228.64        1425.32        1642.65        1863.01        2052.66        2201.89        2306.84        2380.41        2426.99        2459.02        2482.56        2501.38        2518.64        2533.87        2545.82        2555.09        2566.80        2590.54        2629.14        2691.87        2774.75        2877.45        2993.90        3117.21        3246.21        3372.07        3500.00        3625.71        3756.91        3889.35        4003.18        4117.36        4220.09        4319.01        4421.15        4517.31        4595.74        4652.64        4698.47        4736.05        4767.51        4804.42        4845.93        4880.31
           5.00           5.00           5.00           5.00           5.00           5.01           5.04           5.17           5.61           6.39           7.33           8.79          11.25          13.56          15.77          17.24          18.32          19.26          20.29          21.60          23.10          24.51          26.11          28.08          30.46          33.15          35.76          38.21          41.21          45.24          52.16          62.43          77.66         102.47         136.00         181.93         227.74         275.35         314.94         347.27         369.99         384.06         384.23         377.34         373.69         383.16         406.90         436.16         460.39         482.66         500.59         515.51         528.49         540.45         555.85         577.76         611.84         651.62         693.94         731.62         761.54         792.69         825.80         865.05         916.17         987.52        1108.02        1259.33        1457.98        1670.43        1888.97        2067.14        2213.85        2303.54        2359.56        2398.65        2426.34        2448.36        2465.82        2481.36        2495.01        2512.46        2541.04        2586.53        2655.75        2749.97        2868.90        2999.87        3133.73        3268.17        3400.77        3535.92        3658.55        3771.77        3881.80        3989.03        4100.46        4207.02        4303.26        4386.62        4466.99        4535.83        4586.92        4631.34        4670.77        4705.80        4739.95        4779.71        4824.79        4875.43
           5.00           5.00           5.00           5.00           5.00           5.00           5.01           5.04           5.23           5.56           6.07           7.09           8.53          10.57          12.65          14.54          16.04          17.22          18.40          19.63          20.90          22.21          23.80          25.72          27.80          30.00          32.15          34.19          36.22          38.99          42.78          49.60          59.94          75.82         100.66         134.04         179.10         225.66         272.20         311.74         343.72         356.73         357.25         347.57         346.08         356.05         378.41         401.88         427.45         448.18         465.06         481.47         495.32         507.85         521.58         540.90         571.92         611.02         654.66         693.98         728.54         756.95         786.20         817.03         857.21         915.58         998.69        1122.49        1278.26        1480.12        1691.65        1908.52        2075.91        2201.04        2275.23        2327.97        2363.34        2387.22        2407.05        2425.13        2449.02        2484.61        2540.01        2618.65        2719.16        2844.14        2984.24        3128.23        3264.98        3390.83        3516.98        3639.16        3756.65        3860.22        3959.92        4065.63        4171.88        4265.65        4342.41        4411.52        4471.77        4520.78        4564.66        4604.73        4642.16        4678.09        4716.04        4759.11        4807.72        4859.99
           5.00           5.00           5.00           5.00           5.00           5.00           5.00           5.02           5.10           5.28           5.44           5.73           6.46           7.56           9.20          11.24          13.29          15.14          16.42          17.59          18.64          19.85          21.39          23.09          24.93          26.80          28.66          30.29          31.69          33.93          37.33          42.14          49.32          58.52          73.14          96.85         129.21         171.40         216.36         263.99         300.91         320.89         322.08         318.07         317.44         328.55         347.24         371.07         394.97         413.04         427.89         442.99         459.50         474.86         488.89         508.40         535.54         572.88         612.29         653.34         687.82         717.94         744.17         772.25         802.99         849.24         915.58        1006.90        1135.42        1296.88        1501.10        1704.16        1897.20        2045.81        2156.72        2230.27        2287.18        2319.09        2345.17        2371.03        2412.07        2473.67        2560.91        2673.57        2802.12        2946.22        3094.30        3231.91        3351.85        3464.01        3573.26        3684.56        3795.62        3900.61        4006.97        4112.09        4206.46        4284.18        4342.21        4393.46        4446.98        4495.82        4544.35        4584.69        4623.06        4656.15        4695.17        4740.59        4789.56        4837.68
           5.00           5.00           5.00           5.00           5.00           5.00           5.00           5.01           5.05           5.11           5.15           5.24           5.48           5.93           6.94           8.60          10.71          12.62          14.14          15.06          16.05          17.24          18.72          20.28          21.85          23.54          25.14          26.36          27.64          29.55          32.95          37.22          41.94          48.05          55.82          69.42          90.16         120.12         159.12         204.45         246.61         273.67         282.43         286.36         289.98         300.10         315.93         337.25         357.27         373.09         384.80         399.93         416.88         433.99         451.48         471.54         499.76         532.27         570.65         609.03         644.62         674.43         699.42         724.12         754.11         792.57         848.20         917.82        1009.83        1138.89        1298.74        1488.27        1679.72        1858.06        2001.42        2116.62        2194.33        2247.02        2281.33        2325.04        2386.40        2479.63        2595.05        2732.14        2881.21        3031.21        3171.42        3295.16        3398.57        3495.27        3594.12        3702.48        3813.32        3922.55        4027.52        4130.10        4221.84        4290.39        4340.43        4386.52        4429.95        4484.51        4537.05        4582.12        4615.73        4649.19        4685.23        4726.16        4767.88        4812.86
           5.00           5.00           5.00           5.00           5.00           5.00           5.00           5.00           5.02           5.03           5.04           5.06           5.13           5.33           5.84           6.85           8.33          10.02          11.19          12.18          13.18          14.47          15.94          17.47          19.04          20.55          21.95          23.13          24.40          26.47          29.85          33.78          37.64          40.85          45.00          51.17          63.47          81.85         109.12         144.60         186.25         214.07         235.36         246.43         256.79         267.15         282.25         298.45         316.01         328.74         341.86         357.10         373.61         391.40         410.64         433.22         460.18         491.58         526.67         563.94         600.12         628.77         653.28         677.54         707.29         743.68         789.97         847.76         916.20        1008.55        1129.73        1290.13        1465.77        1651.87        1828.98        1977.93        2092.81        2169.29        2226.19        2286.44        2371.90        2488.17        2629.85        2783.56        2938.58        3086.97        3219.61        3329.62        3426.27        3515.67        3614.18        3721.27        3831.16        3935.86        4033.96        4126.70        4210.27        4279.06        4334.07        4381.26        4436.95        4497.84        4556.43        4600.72        4632.73        4658.53        4687.32        4717.74        4754.79        4793.95
           5.00           5.00           5.00           5.00           5.00           5.00           5.00           5.00           5.00           5.00           5.01           5.01           5.04           5.08           5.22           5.64           6.38           7.21           8.15           9.01          10.15          11.56          13.05          14.75          16.34          17.77          19.08          20.34          21.71          24.01          27.00          30.63          33.61          35.92          37.88          41.08          45.96          54.71          67.55          88.27         113.51         144.79         170.49         197.45         216.62         232.41         245.42         259.81         274.05         288.15         302.72         318.10         334.74         353.07         373.48         396.99         423.75         452.31         482.68         517.92         551.33         580.84         605.84         632.42         663.02         698.64         739.58         785.65         838.74         904.06        1001.85        1123.45        1284.86        1465.61        1662.75        1836.94        1986.90        2085.69        2164.77        2244.94        2354.82        2491.72        2651.50        2815.26        2974.48        3118.53        3244.34        3351.40        3447.06        3541.02        3641.28        3747.14        3847.95        3941.04        4029.69        4109.30        4183.36        4258.90        4325.51        4391.23        4454.95        4523.43        4584.28        4622.48        4648.89        4668.94        4692.77        4720.56        4758.31        4818.11
           5.00           5.00           5.00           5.00           5.00           5.00           5.00           5.00           5.00           5.00           5.00           5.00           5.01           5.02           5.05           5.20           5.38           5.71           6.08           6.61           7.46           8.59          10.09          11.89          13.59          15.05          16.43          17.71          19.26          21.19          23.97          27.00          29.63          31.41          32.53          34.17          36.83          40.80          46.21          52.90          67.01          84.99         114.14         143.54         170.68         189.80         206.61         221.81         237.45         252.63         268.86         286.39         303.74         321.84         342.24         366.55         391.23         416.59         442.76         470.60         500.86         528.28         555.85         586.64         620.28         657.20         695.68         735.56         778.33         832.56         901.44        1003.71        1136.46        1312.62        1502.47        1704.33        1866.74        1995.61        2093.84        2203.63        2332.60        2490.54        2661.22        2833.43        2992.77        3135.72        3256.62        3362.91        3458.72        3557.24        3660.53        3760.33        3850.92        3937.21        4015.97        4088.61        4171.01        4256.56        4336.93        4403.77        4465.96        4525.39        4576.21        4617.18        4643.37        4667.35        4694.63        4725.64        4761.45        4803.31
           5.00           5.00           5.00           5.00           5.00           5.00           5.00           5.00           5.00           5.00           5.00           5.00           5.00           5.01           5.01           5.04           5.10           5.19           5.30           5.45           5.80           6.44           7.51           8.98          10.57          12.12          13.68          15.05          16.50          18.32          20.62          23.10          25.30          26.92          28.34          29.74          31.68          33.68          36.42          39.76          44.55          56.50          74.97         101.03         123.52         145.09         164.63         184.21         201.74         219.74         240.26         259.56         276.77         293.57         311.89         331.98         354.85         377.98         401.28         426.30         451.38         477.47         505.90         538.66         576.11         617.19         656.50         694.52         730.95         774.31         831.61         911.60        1028.50        1181.42        1370.28        1562.25        1742.06        1889.27        2018.55        2155.53        2313.06        2489.14        2671.45        2847.41        3006.29        3146.06        3262.76        3363.19        3459.36        3558.91        3660.08        3754.48        3841.01        3925.70        4006.20        4087.21        4173.10        4266.64        4345.94        4406.37        4456.97        4508.69        4555.95        4595.04        4629.90        4661.27        4692.75        4725.73        4758.46        4794.88
           5.00           5.00           5.00           5.00           5.00           5.00           5.00           5.00           5.00           5.00           5.00           5.00           5.00           5.00           5.00           5.01           5.02           5.03           5.06           5.11           5.23           5.50           6.01           6.91           8.00           9.35          10.79          12.19          13.71          15.58          17.53          19.55          21.38          23.21          24.92          26.76          28.60          30.46          32.18          33.71          36.00          40.78          51.72          64.86          81.14          98.81         121.18         143.34         164.85         185.84         207.50         227.86         244.10         258.68         275.82         293.95         311.72         332.23         354.09         377.35         402.09         427.43         455.95         488.47         530.28         573.55         616.13         653.18         689.13         726.85         777.68         841.33         933.64        1064.86        1231.75        1417.99        1610.50        1782.29        1944.61        2111.02        2295.56        2489.29        2680.26        2857.22        3017.57        3150.23        3262.20        3358.12        3454.21        3553.16        3651.22        3741.98        3828.73        3915.54        4000.07        4083.25        4173.80        4259.15        4328.34        4384.87        4439.25        4491.16        4538.70        4580.14        4615.09        4648.46        4681.63        4711.71        4738.59        4763.62
           5.00           5.00           5.00           5.00           5.00           5.00           5.00           5.00           5.00           5.00           5.00           5.00           5.00           5.00           5.00           5.00           5.00           5.01           5.01           5.02           5.04           5.13           5.33           5.71           6.31           7.18           8.25           9.54          11.05          12.64          14.33          16.05          17.97          20.09          22.33          24.36          26.11          27.70          29.17          30.91          32.87          35.75          39.65          44.93          51.57          62.46          77.94          99.01         118.96         141.14         163.85         183.56         200.84         219.46         238.90         257.99         275.28         292.07         310.27         330.95         354.20         378.88         405.09         438.63         476.32         524.23         568.66         607.37         644.41         682.79         725.17         777.01         843.28         949.46        1088.72        1276.46        1474.38        1677.79        1869.69        2067.32        2275.40        2482.68        2681.77        2858.13        3012.89        3146.25        3254.98        3353.99        3448.90        3547.69        3647.17        3737.61        3824.62        3907.85        3991.85        4080.47        4163.76        4236.82        4289.88        4339.36        4398.30        4458.88        4510.48        4551.18        4589.62        4626.44        4659.70        4688.35        4712.01        4735.61
           5.00           5.00           5.00           5.00           5.00           5.00           5.00           5.00           5.00           5.00           5.00           5.00           5.00           5.00           5.00           5.00           5.00           5.00           5.00           5.00           5.01           5.03           5.06           5.15           5.37           5.74           6.36           7.25           8.33           9.56          10.85          12.47          14.57          17.01          19.41          21.29          22.95          24.19          25.93          28.04          30.20          32.57          35.05          37.48          40.28          43.39          51.67          62.44          76.69          93.71         113.20         133.28         154.52         175.42         197.65         219.04         237.85         255.40         273.12         292.39         313.85         336.70         362.22         387.93         423.85         468.42         513.39         555.25         593.72         632.79         673.40         717.78         771.50         846.80         970.29        1125.02        1333.08        1550.72        1776.90        2005.61        2241.27        2467.12        2669.48        2847.12        2999.76        3133.93        3249.65        3352.91        3453.39        3555.68        3653.71        3744.36        3823.79        3899.13        3980.15        4062.40        4140.25        4192.54        4228.37        4276.36        4340.85        4408.29        4462.53        4509.75        4551.53        4593.37        4630.88        4658.19        4679.25        4697.14
           5.00           5.00           5.00           5.00           5.00           5.00           5.00           5.00           5.00           5.00           5.00           5.00           5.00           5.00           5.00           5.00           5.00           5.00           5.00           5.00           5.00           5.00           5.02           5.03           5.08           5.14           5.35           5.72           6.26           6.92           7.86           9.24          11.14          13.35          15.52          17.59          18.93          20.43          22.29          24.69          27.04          29.11          31.03          32.53          33.92          35.83          38.52          43.34          49.93          59.76          72.36          89.18         108.29         128.89         150.33         170.87         191.47         211.11         230.77         252.10         273.75         297.28         318.39         338.36         366.24         404.17         450.13         492.23         534.60         575.28         616.17         659.72         708.26         777.52         867.92        1006.39        1184.96        1415.16        1657.63        1927.37        2195.76        2442.32        2653.94        2839.35        2993.90        3130.68        3254.34        3369.60        3475.17        3578.14        3671.23        3751.49        3825.30        3892.38        3960.64        4034.02        4090.44        4130.34        4162.51        4209.05        4278.71        4344.68        4405.10        4455.37        4503.08        4547.71        4585.70        4615.19        4637.34        4659.11
           5.00           5.00           5.00           5.00           5.00           5.00           5.00           5.00           5.00           5.00           5.00           5.00           5.00           5.00           5.00           5.00           5.00           5.00           5.00           5.00           5.00           5.00           5.00           5.01           5.02           5.04           5.08           5.17           5.27           5.54           6.01           6.82           8.19           9.94          12.31          14.40          16.21          17.74          19.66          21.86          23.85          25.69          27.28          28.72          30.11          31.46          32.85          35.26          38.33          42.79          49.62          59.35          72.47          86.84         101.79         118.50         135.47         155.69         176.56         197.48         221.07         245.18         266.70         286.59         308.58         343.71         382.32         425.50         468.23         510.85         554.19         600.75         650.78         709.40         785.90         887.32        1044.08        1253.40        1518.37        1817.98        2127.20        2402.68        2639.85        2834.33        2997.32        3134.18        3258.34        3370.40        3479.76        3578.85        3664.42        3738.05        3803.25        3861.73        3917.83        3967.76        4017.03        4058.07        4095.09        4150.73        4212.63        4279.85        4344.54        4400.87        4450.87        4494.95        4533.81        4566.47        4590.37        4611.98
           5.00           5.00           5.00           5.00           5.00           5.00           5.00           5.00           5.00           5.00           5.00           5.00           5.00           5.00           5.00           5.00           5.00           5.00           5.00           5.00           5.00           5.00           5.00           5.00           5.00           5.01           5.01           5.04           5.07           5.14           5.28           5.63           6.40           8.00          10.30          12.73          14.73          16.37          18.19          19.90          21.50          23.04          24.63          26.25          28.07          29.65          31.07          32.46          33.79          35.57          38.36          43.07          48.97          56.07          63.79          71.83          83.63          97.85         114.59         133.25         154.47         178.89         203.11         225.79         252.61         281.73         318.17         357.34         399.41         443.07         488.91         539.01         592.38         648.72         717.53         799.23         923.10        1108.69        1365.00        1676.05        2018.24        2341.78        2613.47        2833.43        3001.18        3131.28        3240.19        3344.03        3439.52        3532.09        3612.51        3680.88        3742.00        3790.16        3832.56        3878.41        3928.24        3979.49        4032.47        4088.68        4151.60        4219.75        4285.86        4345.42        4395.53        4441.45        4484.50        4520.00        4549.79        4570.58
           5.00           5.00           5.00           5.00           5.00           5.00           5.00           5.00           5.00           5.00           5.00           5.00           5.00           5.00           5.00           5.00           5.00           5.00           5.00           5.00           5.00           5.00           5.00           5.00           5.00           5.00           5.00           5.01           5.01           5.02           5.07           5.24           5.78           7.29           9.60          12.11          14.02          15.65          17.15          18.59          19.96          21.45          23.20          25.11          26.88          28.36          29.53          30.57          31.58          32.57          33.59          34.81          37.12          39.89          42.80          46.28          50.31          57.09          65.78          77.18          93.06         113.99         140.51         169.69         199.09         229.63         262.01         297.20         334.89         377.37         423.99         476.32         533.11         592.06         653.32         726.57         821.73         983.97        1202.26        1522.42        1886.75        2263.38        2576.11        2827.98        2992.41        3116.75        3217.69        3304.67        3387.24        3468.59        3541.48        3606.11        3660.10        3706.88        3750.49        3798.83        3854.91        3915.06        3975.16        4038.82        4103.96        4169.52        4238.16        4295.32        4345.97        4393.61        4439.37        4484.07        4519.56        4551.72
           5.00           5.00           5.00           5.00           5.00           5.00           5.00           5.00           5.00           5.00           5.00           5.00           5.00           5.00           5.00           5.00           5.00           5.00           5.00           5.00           5.00           5.00           5.00           5.00           5.00           5.00           5.00           5.00           5.00           5.01           5.03           5.08           5.62           6.90           9.20          11.38          13.22          14.74          16.12          17.53          19.04          20.69          22.47          24.23          25.79          26.93          27.85          28.70          29.44          29.98          30.57          31.38          32.23          33.05          33.59          34.57          35.52          37.35          39.73          44.25          52.67          67.16          88.79         116.29         146.43         179.58         212.64         245.23         280.43         318.05         363.21         413.97         471.59         531.71         595.00         661.89         748.01         858.54        1062.83        1343.28        1737.32        2139.95        2524.26        2788.22        2980.56        3096.22        3189.08        3264.12        3338.13        3408.37        3478.27        3539.51        3591.71        3638.92        3688.75        3740.47        3799.57        3862.16        3926.89        3993.05        4059.16        4128.93        4195.86        4257.27        4310.39        4355.38        4403.66        4450.48        4497.04        4538.73
           5.00           5.00           5.00           5.00           5.00           5.00           5.00           5.00           5.00           5.00           5.00           5.00           5.00           5.00           5.00           5.00           5.00           5.00           5.00           5.00           5.00           5.00           5.00           5.00           5.00           5.00           5.00           5.00           5.00           5.00           5.00           5.06           5.30           6.44           8.10          10.03          11.81          13.36          15.01          16.67          18.38          20.13          21.78          23.23          24.44          25.34          26.10          26.70          27.12          27.43          27.95          28.62          29.36          29.69          29.45          28.72          28.01          28.10          29.69          32.23          36.97          45.25          58.25          76.31          99.27         127.80         159.77         194.26         228.15         265.87         305.63         353.11         407.01         466.86         529.59         596.70         665.03         766.89         925.42        1195.65        1551.27        2001.96        2404.09        2723.10        2934.36        3065.93        3150.57        3222.82        3282.62        3348.80        3415.06        3475.14        3531.99        3584.76        3637.55        3692.70        3754.12        3817.63        3880.65        3946.37        4012.27        4078.60        4150.55        4218.23        4273.27        4327.16        4369.96        4420.26        4473.64        4526.57
           5.00           5.00           5.00           5.00           5.00           5.00           5.00           5.00           5.00           5.00           5.00           5.00           5.00           5.00           5.00           5.00           5.00           5.00           5.00           5.00           5.00           5.00           5.00           5.00           5.00           5.00           5.00           5.00           5.00           5.00           5.00           5.04           5.22           5.78           6.96           8.45          10.07          12.00          13.90          15.75          17.58          19.28          20.79          21.98          22.95          23.69          24.23          24.60          24.65          24.72          25.05          25.81          26.39          26.24          25.37          24.26          23.74          24.26          26.17          28.94          32.83          37.64          44.69          53.56          67.11          86.41         114.15         145.94         181.97         216.81         253.96         294.63         343.54         399.21         462.02         528.54         595.82         682.49         812.83        1023.19        1346.53        1766.80        2213.70        2602.03        2851.42        3024.02        3117.43        3176.10        3227.60        3281.30        3342.18        3411.56        3472.68        3531.47        3589.64        3649.31        3710.87        3770.31        3828.21        3888.53        3954.00        4026.29        4098.19        4169.04        4241.53        4296.78        4344.29        4393.24        4449.78        4502.67
           5.00           5.00           5.00           5.00           5.00           5.00           5.00           5.00           5.00           5.00           5.00           5.00           5.00           5.00           5.00           5.00           5.00           5.00           5.00           5.00           5.00           5.00           5.00           5.00           5.00           5.00           5.00           5.00           5.00           5.00           5.00           5.01           5.07           5.33           5.98           6.96           8.50          10.46          12.49          14.42          16.24          17.98          19.42          20.59          21.36          21.90          22.25          22.29          22.16          21.84          21.94          22.22          22.04          21.32          20.78          20.53          21.36          23.34          26.14          29.07          32.00          34.54          37.26          41.65          47.17          58.91          77.01         104.95         136.88         171.23         206.14         243.05         285.62         335.69         392.60         457.02         524.70         596.92         714.11         872.14        1142.55        1523.58        2016.47        2428.40        2785.10        2977.02        3086.89        3140.45        3180.30        3221.02        3285.34        3351.91        3415.00        3474.09        3534.28        3597.47        3659.38        3714.73        3765.61        3823.01        3902.93        3981.12        4057.38        4137.84        4215.64        4284.98        4337.58        4385.95        4442.27        4510.71
           5.00           5.00           5.00           5.00           5.00           5.00           5.00           5.00           5.00           5.00           5.00           5.00           5.00           5.00           5.00           5.00           5.00           5.00           5.00           5.00           5.00           5.00           5.00           5.00           5.00           5.00           5.00           5.00           5.00           5.00           5.00           5.01           5.02           5.09           5.31           5.89           6.95           8.68          10.53          12.39          14.26          15.97          17.52          18.65          19.39          19.73          19.85          19.85          19.49          19.08          18.53          17.84          17.09          16.76          17.47          19.29          21.77          24.57          27.41          29.73          31.32          32.82          34.56          36.58          39.31          43.81          54.56          70.58          93.81         121.21         152.99         189.87         230.27         275.04         326.29         385.67         453.16         529.53         616.36         748.35         945.13        1299.52        1720.91        2240.50        2631.99        2907.10        3041.82        3107.16        3140.86        3180.87        3234.49        3299.55        3358.74        3412.02        3472.81        3536.99        3600.03        3655.07        3702.86        3771.86        3859.65        3953.16        4037.50        4119.08        4204.44        4279.31        4331.13        4376.72        4413.47        4459.02
           5.00           5.00           5.00           5.00           5.00           5.00           5.00           5.00           5.00           5.00           5.00           5.00           5.00           5.00           5.00           5.00           5.00           5.00           5.00           5.00           5.00           5.00           5.00           5.00           5.00           5.00           5.00           5.00           5.00           5.00           5.00           5.00           5.01           5.02           5.14           5.37           6.03           7.07           8.48           9.96          11.57          13.18          14.70          15.96          16.78          17.18          17.40          17.40          17.20          16.50          15.43          14.30          13.42          14.58          17.26          20.25          23.36          26.09          28.33          29.75          30.67          31.87          33.41          34.91          36.75          39.72          44.46          52.21          63.83          81.04         104.64         137.19         173.50         214.55         261.99         316.77         382.37         456.49         539.81         642.65         815.22        1070.28        1486.85        1963.78        2424.44        2754.39        2938.11        3031.14        3098.31        3142.05        3192.13        3248.39        3297.91        3349.50        3407.89        3474.19        3544.82        3607.84        3673.62        3756.10        3859.30        3956.23        4042.76        4125.63        4200.65        4260.85        4303.97        4329.09        4350.98        4371.51
           5.00           5.00           5.00           5.00           5.00           5.00           5.00           5.00           5.00           5.00           5.00           5.00           5.00           5.00           5.00           5.00           5.00           5.00           5.00           5.00           5.00           5.00           5.00           5.00           5.00           5.00           5.00           5.00           5.00           5.00           5.00           5.00           5.00           5.01           5.02           5.13           5.30           5.87           6.56           7.53           8.67           9.94          11.21          12.46          13.36          14.07          14.51          14.71          14.55          13.72          12.47          11.34          11.88          14.23          17.77          21.01          23.77          26.09          27.90          28.94          29.86          31.25          32.91          34.29          35.53          37.29          39.73          43.01          48.70          56.84          72.14          93.61         124.09         159.21         201.47         252.81         313.59         386.25         465.40         551.67         672.07         876.57        1200.85        1629.13        2091.13        2461.66        2731.74        2902.80        3028.56        3092.28        3140.77        3188.83        3238.84        3290.72        3349.54        3422.08        3497.35        3575.01        3659.21        3759.62        3865.04        3957.97        4040.36        4105.96        4158.17        4198.86        4224.58        4243.32        4267.84        4303.08
           5.00           5.00           5.00           5.00           5.00           5.00           5.00           5.00           5.00           5.00           5.00           5.00           5.00           5.00           5.00           5.00           5.00           5.00           5.00           5.00           5.00           5.00           5.00           5.00           5.00           5.00           5.00           5.00           5.00           5.00           5.00           5.00           5.00           5.00           5.00           5.03           5.07           5.17           5.44           5.81           6.42           7.16           8.04           8.96           9.83          10.40          10.86          11.11          10.91          10.19           9.25           9.01          10.67          14.04          17.48          20.32          22.73          24.77          26.37          27.65          28.95          30.65          32.14          33.22          34.29          35.59          37.20          38.84          40.75          44.67          50.12          63.05          80.55         107.99         143.25         188.49         245.62         311.42         387.44         468.56         559.96         718.49         945.33        1300.08        1689.19        2105.60        2461.25        2769.36        2938.15        3038.63        3084.97        3133.93        3186.94        3243.44        3309.84        3384.64        3466.57        3549.72        3642.43        3744.75        3842.31        3924.24        3993.04        4037.50        4069.36        4098.20        4123.50        4150.34        4184.02        4227.78
           5.00           5.00           5.00           5.00           5.00           5.00           5.00           5.00           5.00           5.00           5.00           5.00           5.00           5.00           5.00           5.00           5.00           5.00           5.00           5.00           5.00           5.00           5.00           5.00           5.00           5.00           5.00           5.00           5.00           5.00           5.00           5.00           5.00           5.00           5.00           5.00           5.02           5.05           5.09           5.16           5.32           5.59           5.98           6.49           6.95           7.28           7.43           7.51           7.44           7.05           6.59           7.42           9.48          13.10          16.31          18.95          21.09          22.93          24.56          26.11          27.89          29.66          30.97          31.98          33.04          34.16          35.39          36.63          37.92          39.73          42.19          45.71          54.75          68.34          93.19         127.01         174.76         237.23         309.05         387.70         473.41         572.69         756.33         999.07        1367.22        1791.70        2265.43        2625.90        2887.77        2979.14        3037.25        3087.94        3145.94        3210.50        3278.84        3355.44        3436.00        3520.04        3607.81        3698.04        3780.63        3853.22        3903.14        3935.27        3963.16        3996.40        4033.90        4071.76        4113.84        4150.91
           5.00           5.00           5.00           5.00           5.00           5.00           5.00           5.00           5.00           5.00           5.00           5.00           5.00           5.00           5.00           5.00           5.00           5.00           5.00           5.00           5.00           5.00           5.00           5.00           5.00           5.00           5.00           5.00           5.00           5.00           5.00           5.00           5.00           5.00           5.00           5.00           5.00           5.01           5.02           5.04           5.07           5.12           5.18           5.35           5.54           5.61           5.65           5.68           5.64           5.51           5.75           6.41           8.68          11.78          14.92          17.54          19.52          21.23          22.86          24.60          26.43          28.18          29.55          30.78          31.90          32.98          34.04          35.04          36.04          37.21          38.76          40.76          44.05          50.20          61.03          82.93         116.42         168.39         232.37         308.69         388.03         482.24         604.82         812.98        1129.80        1566.80        2037.83        2483.47        2762.58        2914.47        2992.40        3052.85        3116.15        3181.61        3250.11        3323.86        3398.48        3471.58        3548.08        3620.62        3692.80        3753.51        3798.59        3831.99        3870.66        3917.00        3963.81        4008.29        4049.47        4087.52
           5.00           5.00           5.00           5.00           5.00           5.00           5.00           5.00           5.00           5.00           5.00           5.00           5.00           5.00           5.00           5.00           5.00           5.00           5.00           5.00           5.00           5.00           5.00           5.00           5.00           5.00           5.00           5.00           5.00           5.00           5.00           5.00           5.00           5.00           5.00           5.00           5.00           5.00           5.00           5.01           5.01           5.02           5.04           5.06           5.09           5.10           5.13           5.16           5.12           5.09           5.19           5.85           7.51          10.08          13.30          15.88          18.06          19.78          21.41          23.07          24.85          26.47          27.96          29.27          30.46          31.53          32.52          33.37          34.25          35.25          36.39          37.53          38.61          40.86          46.34          56.10          77.58         111.17         163.96         227.17         302.01         382.08         486.39         660.88         941.34        1368.44        1863.70        2336.27        2662.24        2867.67        2958.27        3029.20        3094.12        3158.59        3219.94        3286.61        3348.91        3408.36        3468.14        3529.90        3595.03        3655.18        3706.66        3750.34        3800.32        3851.49        3897.86        3939.21        3976.60        4012.26
           5.00           5.00           5.00           5.00           5.00           5.00           5.00           5.00           5.00           5.00           5.00           5.00           5.00           5.00           5.00           5.00           5.00           5.00           5.00           5.00           5.00           5.00           5.00           5.00           5.00           5.00           5.00           5.00           5.00           5.00           5.00           5.00           5.00           5.00           5.00           5.00           5.00           5.00           5.00           5.00           5.00           5.00           5.01           5.01           5.02           5.02           5.02           5.02           5.02           5.02           5.05           5.52           6.49           8.60          11.17          13.99          16.24          18.22          19.87          21.50          23.09          24.63          26.05          27.31          28.49          29.60          30.57          31.41          32.09          32.94          33.80          34.43          35.04          35.62          37.22          41.28          49.49          70.83         103.00         153.57         213.35         283.53         382.04         515.68         778.61        1169.40        1707.15        2187.74        2580.02        2801.67        2933.30        3007.89        3072.98        3126.34        3180.72        3236.04        3287.87        3334.92        3384.84        3443.26        3506.24        3572.77        3632.56        3688.53        3737.78        3783.35        3824.09        3859.67        3898.47        3942.61
           5.00           5.00           5.00           5.00           5.00           5.00           5.00           5.00           5.00           5.00           5.00           5.00           5.00           5.00           5.00           5.00           5.00           5.00           5.00           5.00           5.00           5.00           5.00           5.00           5.00           5.00           5.00           5.00           5.00           5.00           5.00           5.00           5.00           5.00           5.00           5.00           5.00           5.00           5.00           5.00           5.00           5.00           5.00           5.00           5.00           5.00           5.00           5.00           5.00           5.01           5.03           5.11           5.64           6.62           8.55          10.82          13.46          15.84          17.87          19.52          21.00          22.38          23.67          24.94          26.17          27.32          28.38          29.17          29.80          30.41          31.05          31.48          31.58          31.65          31.63          33.15          37.07          45.91          64.91          94.21         139.46         195.34         269.13         394.58         592.10         979.12        1475.87        2037.49        2460.09        2736.62        2891.58        2974.65        3029.70        3076.09        3120.13        3169.92        3216.23        3259.33        3310.58        3370.03        3439.92        3510.70        3580.10        3636.95        3679.51        3714.48        3747.41        3783.97        3831.07        3888.12
           5.00           5.00           5.00           5.00           5.00           5.00           5.00           5.00           5.00           5.00           5.00           5.00           5.00           5.00           5.00           5.00           5.00           5.00           5.00           5.00           5.00           5.00           5.00           5.00           5.00           5.00           5.00           5.00           5.00           5.00           5.00           5.00           5.00           5.00           5.00           5.00           5.00           5.00           5.00           5.00           5.00           5.00           5.00           5.00           5.00           5.00           5.00           5.00           5.00           5.00           5.01           5.07           5.21           5.57           6.44           8.16          10.25          12.73          14.85          16.54          18.03          19.38          20.82          22.24          23.58          24.82          25.88          26.72          27.32          27.83          28.21          28.28          27.77          26.78          25.62          26.15          29.21          35.08          46.81          64.18          90.44         130.74         189.69         286.09         457.12         763.13        1265.73        1833.90        2305.57        2650.79        2813.92        2902.24        2965.05        3013.75        3062.00        3111.36        3154.70        3195.42        3246.46        3310.47        3384.58        3462.01        3536.37        3584.51        3616.84        3643.75        3675.76        3717.71        3771.86        3843.91
           5.00           5.00           5.00           5.00           5.00           5.00           5.00           5.00           5.00           5.00           5.00           5.00           5.00           5.00           5.00           5.00           5.00           5.00           5.00           5.00           5.00           5.00           5.00           5.00           5.00           5.00           5.00           5.00           5.00           5.00           5.00           5.00           5.00           5.00           5.00           5.00           5.00           5.00           5.00           5.00           5.00           5.00           5.00           5.00           5.00           5.00           5.00           5.00           5.00           5.00           5.00           5.01           5.06           5.17           5.63           6.40           7.86           9.56          11.24          12.77          14.18          15.69          17.36          19.10          20.72          22.05          23.18          24.09          24.67          25.04          25.06          24.41          23.29          21.12          19.89          21.26          25.68          31.97          38.76          48.96          63.34          88.27         127.60         188.76         310.36         547.02         986.33        1506.92        2041.81        2404.89        2654.76        2780.84        2878.24        2949.76        3012.72        3071.29        3111.27        3149.11        3192.94        3254.90        3328.15        3412.32        3478.32        3519.01        3543.00        3572.16        3609.56        3656.85        3709.13        3763.69
           5.00           5.00           5.00           5.00           5.00           5.00           5.00           5.00           5.00           5.00           5.00           5.00           5.00           5.00           5.00           5.00           5.00           5.00           5.00           5.00           5.00           5.00           5.00           5.00           5.00           5.00           5.00           5.00           5.00           5.00           5.00           5.00           5.00           5.00           5.00           5.00           5.00           5.00           5.00           5.00           5.00           5.00           5.00           5.00           5.00           5.00           5.00           5.00           5.00           5.00           5.00           5.00           5.01           5.03           5.11           5.46           5.97           6.81           7.86           8.93          10.21          11.68          13.46          15.48          17.23          18.75          20.02          21.01          21.71          21.85          21.56          20.78          18.79          16.58          16.53          19.63          25.15          31.15          36.85          41.99          49.99          62.17          85.87         130.29         203.63         385.76         680.31        1145.01        1587.44        2030.82        2350.85        2587.60        2743.88        2868.48        2954.56        3023.12        3066.15        3098.19        3143.84        3202.68        3278.03        3357.09        3408.94        3435.95        3466.58        3504.92        3549.97        3597.54        3650.41        3698.91
           5.00           5.00           5.00           5.00           5.00           5.00           5.00           5.00           5.00           5.00           5.00           5.00           5.00           5.00           5.00           5.00           5.00           5.00           5.00           5.00           5.00           5.00           5.00           5.00           5.00           5.00           5.00           5.00           5.00           5.00           5.00           5.00           5.00           5.00           5.00           5.00           5.00           5.00           5.00           5.00           5.00           5.00           5.00           5.00           5.00           5.00           5.00           5.00           5.00           5.00           5.00           5.00           5.00           5.01           5.03           5.10           5.18           5.42           5.77           6.31           7.08           8.21           9.72          11.55          13.34          14.84          16.19          17.28          17.97          18.29          17.88          16.78          14.80          13.52          14.80          19.33          24.81          30.22          34.38          37.86          41.82          49.42          60.33          84.26         129.47         209.45         421.71         707.76        1116.36        1545.08        1975.01        2309.39        2562.38        2738.91        2865.89        2944.53        2998.54        3039.73        3095.40        3163.80        3242.05        3303.94        3340.04        3364.85        3401.33        3445.15        3489.55        3537.89        3597.72        3666.82
           5.00           5.00           5.00           5.00           5.00           5.00           5.00           5.00           5.00           5.00           5.00           5.00           5.00           5.00           5.00           5.00           5.00           5.00           5.00           5.00           5.00           5.00           5.00           5.00           5.00           5.00           5.00           5.00           5.00           5.00           5.00           5.00           5.00           5.00           5.00           5.00           5.00           5.00           5.00           5.00           5.00           5.00           5.00           5.00           5.00           5.00           5.00           5.00           5.00           5.00           5.00           5.00           5.00           5.00           5.01           5.02           5.05           5.09           5.15           5.23           5.51           5.96           6.75           7.94           9.24          10.56          11.76          12.73          13.27          13.34          13.14          12.05          10.79          10.46          12.95          17.41          22.46          27.03          30.85          33.90          36.87          40.42          45.96          55.39          81.78         128.73         220.83         407.22         697.15        1086.88        1529.28        1964.64        2317.26        2564.20        2735.59        2851.00        2923.68        2988.22        3057.96        3131.44        3195.32        3244.13        3268.83        3299.57        3342.38        3383.43        3426.54        3480.54        3548.04        3621.30
           5.00           5.00           5.00           5.00           5.00           5.00           5.00           5.00           5.00           5.00           5.00           5.00           5.00           5.00           5.00           5.00           5.00           5.00           5.00           5.00           5.00           5.00           5.00           5.00           5.00           5.00           5.00           5.00           5.00           5.00           5.00           5.00           5.00           5.00           5.00           5.00           5.00           5.00           5.00           5.00           5.00           5.00           5.00           5.00           5.00           5.00           5.00           5.00           5.00           5.00           5.00           5.00           5.00           5.00           5.00           5.00           5.01           5.01           5.03           5.06           5.11           5.20           5.36           5.79           6.33           7.03           7.85           8.35           8.61           8.59           8.34           7.84           7.18           7.59          10.18          13.73          18.26          22.51          26.28          29.51          32.31          34.67          37.58          42.96          52.44          76.54         119.81         227.24         410.84         709.06        1112.58        1580.39        1988.74        2324.75        2560.61        2716.42        2837.06        2932.18        3019.80        3081.86        3130.40        3165.67        3197.84        3237.88        3277.64        3317.74        3365.01        3429.55        3499.49        3560.95
           5.00           5.00           5.00           5.00           5.00           5.00           5.00           5.00           5.00           5.00           5.00           5.00           5.00           5.00           5.00           5.00           5.00           5.00           5.00           5.00           5.00           5.00           5.00           5.00           5.00           5.00           5.00           5.00           5.00           5.00           5.00           5.00           5.00           5.00           5.00           5.00           5.00           5.00           5.00           5.00           5.00           5.00           5.00           5.00           5.00           5.00           5.00           5.00           5.00           5.00           5.00           5.00           5.00           5.00           5.00           5.00           5.00           5.00           5.01           5.01           5.02           5.05           5.10           5.16           5.25           5.45           5.71           5.98           5.98           5.94           5.91           5.73           5.61           6.25           7.60          10.41          13.68          17.65          21.41          25.00          27.83          30.06          31.51          33.94          38.76          49.49          75.45         115.90         218.05         392.73         689.18        1066.82        1501.05        1894.50        2242.61        2493.90        2694.63        2850.79        2950.93        3022.27        3059.38        3092.33        3128.83        3168.76        3209.12        3251.25        3308.81        3379.28        3446.86        3499.70
           5.00           5.00           5.00           5.00           5.00           5.00           5.00           5.00           5.00           5.00           5.00           5.00           5.00           5.00           5.00           5.00           5.00           5.00           5.00           5.00           5.00           5.00           5.00           5.00           5.00           5.00           5.00           5.00           5.00           5.00           5.00           5.00           5.00           5.00           5.00           5.00           5.00           5.00           5.00           5.00           5.00           5.00           5.00           5.00           5.00           5.00           5.00           5.00           5.00           5.00           5.00           5.00           5.00           5.00           5.00           5.00           5.00           5.00           5.00           5.00           5.00           5.01           5.01           5.03           5.06           5.10           5.12           5.15           5.21           5.17           5.19           5.14           5.15           5.32           6.16           7.37           9.67          12.58          16.30          19.75          22.93          25.15          27.00          28.37          31.32          35.92          47.05          71.34         114.12         213.56         370.17         632.63         951.40        1364.36        1768.36        2144.42        2459.76        2722.71        2877.57        2956.00        2996.27        3022.87        3053.47        3094.23        3138.58        3189.92        3255.02        3325.17        3383.54        3426.90
           5.00           5.00           5.00           5.00           5.00           5.00           5.00           5.00           5.00           5.00           5.00           5.00           5.00           5.00           5.00           5.00           5.00           5.00           5.00           5.00           5.00           5.00           5.00           5.00           5.00           5.00           5.00           5.00           5.00           5.00           5.00           5.00           5.00           5.00           5.00           5.00           5.00           5.00           5.00           5.00           5.00           5.00           5.00           5.00           5.00           5.00           5.00           5.00           5.00           5.00           5.00           5.00           5.00           5.00           5.00           5.00           5.00           5.00           5.00           5.00           5.00           5.00           5.00           5.01           5.01           5.01           5.03           5.03           5.04           5.03           5.03           5.06           5.12           5.28           5.43           5.84           6.74           8.58          10.91          13.88          16.76          20.03          22.44          24.49          26.65          29.99          35.23          46.34          64.61         103.70         194.09         325.27         562.26         881.40        1305.77        1725.49        2182.31        2529.58        2756.91        2855.47        2912.87        2942.63        2978.84        3020.82        3072.87        3132.68        3200.12        3263.55        3306.31        3329.16
           5.00           5.00           5.00           5.00           5.00           5.00           5.00           5.00           5.00           5.00           5.00           5.00           5.00           5.00           5.00           5.00           5.00           5.00           5.00           5.00           5.00           5.00           5.00           5.00           5.00           5.00           5.00           5.00           5.00           5.00           5.00           5.00           5.00           5.00           5.00           5.00           5.00           5.00           5.00           5.00           5.00           5.00           5.00           5.00           5.00           5.00           5.00           5.00           5.00           5.00           5.00           5.00           5.00           5.00           5.00           5.00           5.00           5.00           5.00           5.00           5.00           5.00           5.00           5.00           5.00           5.00           5.00           5.00           5.00           5.01           5.03           5.07           5.26           5.45           5.52           5.68           6.03           6.61           7.63           8.92          11.08          13.84          17.06          19.74          22.09          24.82          27.75          32.24          41.16          57.17          89.85         159.80         283.92         522.47         837.38        1297.83        1778.70        2238.61        2518.60        2699.51        2780.87        2839.14        2887.81        2943.68        3002.35        3068.81        3135.76        3188.75        3220.62        3237.09
           5.00           5.00           5.00           5.00           5.00           5.00           5.00           5.00           5.00           5.00           5.00           5.00           5.00           5.00           5.00           5.00           5.00           5.00           5.00           5.00           5.00           5.00           5.00           5.00           5.00           5.00           5.00           5.00           5.00           5.00           5.00           5.00           5.00           5.00           5.00           5.00           5.00           5.00           5.00           5.00           5.00           5.00           5.00           5.00           5.00           5.00           5.00           5.00           5.00           5.00           5.00           5.00           5.00           5.00           5.00           5.00           5.00           5.00           5.00           5.00           5.00           5.00           5.00           5.00           5.00           5.00           5.00           5.00           5.00           5.01           5.02           5.14           5.34           5.59           5.73           5.76           5.95           6.09           6.25           6.69           7.62           9.62          12.04          14.27          16.37          18.05          19.99          22.43          24.90          30.48          44.27          76.67         147.90         267.77         498.45         852.89        1334.68        1785.49        2185.64        2442.94        2604.99        2704.37        2784.18        2852.35        2921.35        2990.91        3052.49        3098.06        3131.82        3155.66
           5.00           5.00           5.00           5.00           5.00           5.00           5.00           5.00           5.00           5.00           5.00           5.00           5.00           5.00           5.00           5.00           5.00           5.00           5.00           5.00           5.00           5.00           5.00           5.00           5.00           5.00           5.00           5.00           5.00           5.00           5.00           5.00           5.00           5.00           5.00           5.00           5.00           5.00           5.00           5.00           5.00           5.00           5.00           5.00           5.00           5.00           5.00           5.00           5.00           5.00           5.00           5.00           5.00           5.00           5.00           5.00           5.00           5.00           5.00           5.00           5.00           5.00           5.00           5.00           5.00           5.00           5.00           5.00           5.00           5.00           5.01           5.05           5.20           5.38           5.52           5.68           5.74           5.71           5.61           5.69           6.13           7.08           8.36           9.65          10.45          11.43          12.42          13.37          14.96          18.35          26.60          37.95          65.38         121.68         243.13         491.06         861.81        1312.86        1767.10        2122.54        2384.98        2540.38        2651.64        2745.21        2823.89        2894.09        2953.09        2999.97        3050.23        3103.55
           5.00           5.00           5.00           5.00           5.00           5.00           5.00           5.00           5.00           5.00           5.00           5.00           5.00           5.00           5.00           5.00           5.00           5.00           5.00           5.00           5.00           5.00           5.00           5.00           5.00           5.00           5.00           5.00           5.00           5.00           5.00           5.00           5.00           5.00           5.00           5.00           5.00           5.00           5.00           5.00           5.00           5.00           5.00           5.00           5.00           5.00           5.00           5.00           5.00           5.00           5.00           5.00           5.00           5.00           5.00           5.00           5.00           5.00           5.00           5.00           5.00           5.00           5.00           5.00           5.00           5.00           5.00           5.00           5.00           5.00           5.01           5.02           5.08           5.18           5.32           5.42           5.45           5.39           5.32           5.30           5.48           5.86           6.40           6.73           7.09           7.28           7.76           8.53          10.13          13.91          19.71          27.45          37.00          63.35         106.37         233.35         470.62         846.36        1273.03        1731.35        2072.22        2333.68        2493.49        2614.52        2704.71        2781.46        2849.31        2913.89        2984.69        3071.09
           5.00           5.00           5.00           5.00           5.00           5.00           5.00           5.00           5.00           5.00           5.00           5.00           5.00           5.00           5.00           5.00           5.00           5.00           5.00           5.00           5.00           5.00           5.00           5.00           5.00           5.00           5.00           5.00           5.00           5.00           5.00           5.00           5.00           5.00           5.00           5.00           5.00           5.00           5.00           5.00           5.00           5.00           5.00           5.00           5.00           5.00           5.00           5.00           5.00           5.00           5.00           5.00           5.00           5.00           5.00           5.00           5.00           5.00           5.00           5.00           5.00           5.00           5.00           5.00           5.00           5.00           5.00           5.00           5.00           5.00           5.01           5.03           5.09           5.14           5.19           5.22           5.18           5.14           5.11           5.14           5.26           5.48           5.64           5.70           5.84           5.95           6.03           6.55           8.62          12.63          18.49          23.80          28.82          36.68          57.26         104.20         248.10         483.37         881.55        1304.78        1763.55        2089.16        2321.08        2463.04        2576.70        2672.25        2759.02        2842.22        2925.40        3016.66
           5.00           5.00           5.00           5.00           5.00           5.00           5.00           5.00           5.00           5.00           5.00           5.00           5.00           5.00           5.00           5.00           5.00           5.00           5.00           5.00           5.00           5.00           5.00           5.00           5.00           5.00           5.00           5.00           5.00           5.00           5.00           5.00           5.00           5.00           5.00           5.00           5.00           5.00           5.00           5.00           5.00           5.00           5.00           5.00           5.00           5.00           5.00           5.00           5.00           5.00           5.00           5.00           5.00           5.00           5.00           5.00           5.00           5.00           5.00           5.00           5.00           5.00           5.00           5.00           5.00           5.00           5.00           5.00           5.00           5.00           5.01           5.03           5.06           5.09           5.08           5.06           5.04           5.03           5.02           5.04           5.11           5.22           5.34           5.49           5.62           5.69           5.58           5.98           7.48          11.74          16.98          22.74          27.37          32.46          40.02          56.50         105.34         261.94         502.83         943.44        1419.24        1855.36        2138.60        2333.32        2462.87        2576.05        2677.67        2770.47        2859.96        2948.91
           5.00           5.00           5.00           5.00           5.00           5.00           5.00           5.00           5.00           5.00           5.00           5.00           5.00           5.00           5.00           5.00           5.00           5.00           5.00           5.00           5.00           5.00           5.00           5.00           5.00           5.00           5.00           5.00           5.00           5.00           5.00           5.00           5.00           5.00           5.00           5.00           5.00           5.00           5.00           5.00           5.00           5.00           5.00           5.00           5.00           5.00           5.00           5.00           5.00           5.00           5.00           5.00           5.00           5.00           5.00           5.00           5.00           5.00           5.00           5.00           5.00           5.00           5.00           5.00           5.00           5.00           5.00           5.00           5.00           5.00           5.01           5.02           5.03           5.03           5.02           5.01           5.01           5.01           5.01           5.01           5.03           5.07           5.14           5.25           5.40           5.44           5.42           5.62           7.17          10.71          16.37          22.37          27.26          31.47          36.02          43.52          75.76         137.20         333.40         697.56        1199.99        1679.47        2003.39        2217.37        2366.41        2487.08        2592.43        2689.36        2779.70        2863.79
           5.00           5.00           5.00           5.00           5.00           5.00           5.00           5.00           5.00           5.00           5.00           5.00           5.00           5.00           5.00           5.00           5.00           5.00           5.00           5.00           5.00           5.00           5.00           5.00           5.00           5.00           5.00           5.00           5.00           5.00           5.00           5.00           5.00           5.00           5.00           5.00           5.00           5.00           5.00           5.00           5.00           5.00           5.00           5.00           5.00           5.00           5.00           5.00           5.00           5.00           5.00           5.00           5.00           5.00           5.00           5.00           5.00           5.00           5.00           5.00           5.00           5.00           5.00           5.00           5.00           5.00           5.00           5.00           5.00           5.00           5.00           5.01           5.01           5.01           5.00           5.00           5.00           5.00           5.00           5.00           5.01           5.02           5.05           5.09           5.15           5.18           5.19           5.35           6.83          10.27          16.21          22.40          27.92          32.10          36.21          40.83          51.63          98.10         246.69         568.98        1083.57        1551.03        1904.88        2109.59        2264.60        2386.93        2497.95        2601.37        2700.64        2794.62
           5.00           5.00           5.00           5.00           5.00           5.00           5.00           5.00           5.00           5.00           5.00           5.00           5.00           5.00           5.00           5.00           5.00           5.00           5.00           5.00           5.00           5.00           5.00           5.00           5.00           5.00           5.00           5.00           5.00           5.00           5.00           5.00           5.00           5.00           5.00           5.00           5.00           5.00           5.00           5.00           5.00           5.00           5.00           5.00           5.00           5.00           5.00           5.00           5.00           5.00           5.00           5.00           5.00           5.00           5.00           5.00           5.00           5.00           5.00           5.00           5.00           5.00           5.00           5.00           5.00           5.00           5.00           5.00           5.00           5.00           5.00           5.00           5.00           5.00           5.00           5.00           5.00           5.00           5.00           5.00           5.00           5.00           5.01           5.03           5.03           5.04           5.04           5.52           7.19          11.33          17.22          23.73          28.90          33.01          36.79          41.43          48.90         102.63         235.09         572.52        1027.40        1484.87        1774.26        1976.19        2127.54        2265.00        2392.96        2516.14        2627.54        2733.20
           5.00           5.00           5.00           5.00           5.00           5.00           5.00           5.00           5.00           5.00           5.00           5.00           5.00           5.00           5.00           5.00           5.00           5.00           5.00           5.00           5.00           5.00           5.00           5.00           5.00           5.00           5.00           5.00           5.00           5.00           5.00           5.00           5.00           5.00           5.00           5.00           5.00           5.00           5.00           5.00           5.00           5.00           5.00           5.00           5.00           5.00           5.00           5.00           5.00           5.00           5.00           5.00           5.00           5.00           5.00           5.00           5.00           5.00           5.00           5.00           5.00           5.00           5.00           5.00           5.00           5.00           5.00           5.00           5.00           5.00           5.00           5.00           5.00           5.00           5.00           5.00           5.00           5.00           5.00           5.00           5.00           5.00           5.00           5.00           5.01           5.01           5.09           6.10           8.68          13.53          19.70          25.29          29.77          33.48          36.55          41.57          56.23         110.61         276.92         596.49        1014.77        1384.40        1642.48        1836.84        1997.97        2154.96        2304.86        2438.86        2558.82        2666.08
           5.00           5.00           5.00           5.00           5.00           5.00           5.00           5.00           5.00           5.00           5.00           5.00           5.00           5.00           5.00           5.00           5.00           5.00           5.00           5.00           5.00           5.00           5.00           5.00           5.00           5.00           5.00           5.00           5.00           5.00           5.00           5.00           5.00           5.00           5.00           5.00           5.00           5.00           5.00           5.00           5.00           5.00           5.00           5.00           5.00           5.00           5.00           5.00           5.00           5.00           5.00           5.00           5.00           5.00           5.00           5.00           5.00           5.00           5.00           5.00           5.00           5.00           5.00           5.00           5.00           5.00           5.00           5.00           5.00           5.00           5.00           5.02           5.02           5.03           5.01           5.01           5.01           5.01           5.01           5.01           5.01           5.01           5.00           5.00           5.00           5.03           5.56           7.50          11.41          16.71          22.01          26.29          29.98          32.78          35.87          40.72          61.50         123.40         318.21         604.93        1002.76        1319.51        1579.37        1774.54        1950.56        2105.93        2248.91        2378.54        2490.66        2593.16
           5.00           5.00           5.00           5.00           5.00           5.00           5.00           5.00           5.00           5.00           5.00           5.00           5.00           5.00           5.00           5.00           5.00           5.00           5.00           5.00           5.00           5.00           5.00           5.00           5.00           5.00           5.00           5.00           5.00           5.00           5.00           5.00           5.00           5.00           5.00           5.00           5.00           5.00           5.00           5.00           5.00           5.00           5.00           5.00           5.00           5.00           5.00           5.00           5.00           5.00           5.00           5.00           5.00           5.00           5.00           5.00           5.00           5.00           5.00           5.00           5.00           5.00           5.00           5.00           5.00           5.00           5.00           5.00           5.00           5.00           5.02           5.08           5.08           5.10           5.02           5.01           5.05           5.04           5.03           5.03           5.02           5.04           5.02           5.01           5.00           5.09           5.83          10.07          15.07          20.62          23.60          26.06          29.29          31.69          33.80          39.47          53.11          99.01         340.34         568.21         998.17        1337.96        1596.86        1796.20        1958.22        2084.37        2211.33        2319.37        2417.92        2527.19
